# .PCD v.7 - Point Cloud Data file format
VERSION .7
FIELDS x y z rgb
SIZE 4 4 4 4
TYPE F F F I
COUNT 1 1 1 1
WIDTH 1595
HEIGHT 1
POINTS 1595
DATA ascii
-0.005935 0.026191 0.003220 0
-0.004919 0.026324 0.002741 0
-0.002681 0.026502 0.003593 0
0.000083 0.026624 0.003244 0
0.002172 0.026552 0.003275 0
0.004228 0.026325 0.002936 0
-0.008416 -0.025676 0.005420 0
-0.006848 -0.026120 0.005484 0
-0.004726 -0.026595 0.005328 0
-0.002431 -0.026889 0.005830 0
-0.000439 -0.027089 0.005467 0
0.001684 -0.027148 0.005590 0
0.003767 -0.027024 0.005829 0
0.006280 -0.026636 0.005471 0
0.008996 -0.025882 0.005288 0
-0.012632 -0.023674 0.004655 0
-0.011764 -0.024091 0.005886 0
-0.009043 -0.025426 0.005420 0
0.009695 -0.025521 0.006672 0
0.011252 -0.024922 0.005516 0
0.013302 -0.023807 0.005366 0
-0.015580 -0.021599 0.005769 0
-0.013987 -0.022688 0.005825 0
0.014131 -0.023233 0.005837 0
0.015940 -0.021999 0.005612 0
-0.018257 -0.019471 0.005512 0
-0.016550 -0.020929 0.005393 0
0.018179 -0.020142 0.005707 0
0.019212 -0.019102 0.005789 0
-0.020282 -0.017357 0.005644 0
0.020359 -0.017806 0.005706 0
-0.022055 -0.015324 0.005747 0
0.022158 -0.015530 0.005678 0
-0.024590 -0.012171 0.005032 0
-0.023359 -0.013764 0.005720 0
0.023929 -0.013150 0.005768 0
-0.025037 -0.011392 0.005942 0
0.025240 -0.010984 0.005670 0
0.025832 -0.009853 0.004655 0
-0.026540 -0.008536 0.005476 0
-0.026083 -0.009554 0.006672 0
0.025960 -0.009355 0.005855 0
-0.027185 -0.006462 0.005701 0
0.026801 -0.006455 0.005671 0
-0.027801 -0.003655 0.005794 0
0.027231 -0.004022 0.005660 0
-0.028077 -0.002009 0.005526 0
0.027440 -0.001926 0.005664 0
-0.028246 0.000547 0.005190 0
0.027447 0.000431 0.005854 0
-0.028039 0.002748 0.005628 0
0.027269 0.002077 0.005726 0
-0.027723 0.004793 0.005569 0
0.026801 0.004696 0.005558 0
-0.027301 0.006976 0.005615 0
0.026266 0.007070 0.005542 0
-0.026752 0.009200 0.005604 0
0.025446 0.009683 0.005486 0
0.025851 0.008557 0.005820 0
-0.026277 0.010596 0.005598 0
-0.025485 0.012200 0.005629 0
0.024546 0.011552 0.005909 0
-0.024426 0.013972 0.005706 0
0.022680 0.014520 0.005621 0
0.023776 0.012921 0.005675 0
-0.022641 0.016479 0.005655 0
0.020976 0.016731 0.005350 0
0.021835 0.015649 0.005585 0
-0.021821 0.017496 0.005456 0
-0.020768 0.018708 0.005684 0
0.018609 0.019131 0.005519 0
0.019552 0.018201 0.005733 0
-0.019638 0.019767 0.005792 0
-0.018426 0.020833 0.005866 0
0.015937 0.021360 0.005861 0
0.017230 0.020372 0.005471 0
-0.017233 0.021697 0.005682 0
-0.015996 0.022493 0.005735 0
-0.014435 0.023333 0.005723 0
0.011818 0.023723 0.005654 0
0.013713 0.022774 0.005829 0
0.014971 0.022028 0.005608 0
-0.013064 0.024007 0.005702 0
-0.011513 0.024674 0.005801 0
-0.009046 0.025537 0.005532 0
-0.007028 0.025999 0.005687 0
0.006261 0.025820 0.005812 0
0.009029 0.024919 0.005384 0
0.010590 0.024295 0.005399 0
-0.004774 0.026321 0.005742 0
-0.002387 0.026535 0.005585 0
-0.000362 0.026644 0.005869 0
0.001608 0.026610 0.005690 0
0.004011 0.026326 0.005611 0
-0.008267 -0.025624 0.007426 0
-0.006852 -0.025997 0.007831 0
-0.004426 -0.026488 0.008689 0
-0.002642 -0.026750 0.008042 0
-0.000333 -0.026942 0.008148 0
0.001649 -0.027014 0.007795 0
0.004045 -0.026875 0.007742 0
0.006350 -0.026463 0.007781 0
0.008534 -0.025814 0.008163 0
-0.011913 -0.023907 0.008230 0
-0.009066 -0.025272 0.007983 0
0.009500 -0.025494 0.007899 0
0.011547 -0.024562 0.007948 0
0.013310 -0.023580 0.007963 0
-0.015557 -0.021557 0.007945 0
-0.014147 -0.022520 0.007707 0
0.013729 -0.023265 0.008689 0
0.015607 -0.022019 0.008049 0
0.016767 -0.021171 0.007694 0
-0.018213 -0.019418 0.008153 0
-0.016683 -0.020721 0.007993 0
0.018037 -0.020075 0.008114 0
-0.020304 -0.017291 0.008193 0
-0.019159 -0.018479 0.007876 0
0.020147 -0.017923 0.007958 0
-0.022256 -0.014976 0.008168 0
-0.021246 -0.016177 0.007754 0
0.022066 -0.015527 0.008032 0
-0.024170 -0.012505 0.007745 0
-0.023203 -0.013790 0.007859 0
0.023909 -0.013048 0.008314 0
-0.024968 -0.011268 0.008036 0
0.025120 -0.011081 0.007990 0
-0.026451 -0.008259 0.007980 0
-0.025886 -0.009554 0.008689 0
0.025968 -0.009160 0.007990 0
-0.026790 -0.007007 0.008326 0
0.026730 -0.006139 0.008499 0
-0.027441 -0.003940 0.008191 0
0.027101 -0.004003 0.007627 0
-0.027723 -0.001925 0.008531 0
0.027292 -0.001718 0.008161 0
-0.027973 0.000342 0.007752 0
0.027296 0.000146 0.007741 0
-0.027776 0.002843 0.008145 0
0.027023 0.002686 0.008015 0
-0.027504 0.004879 0.008188 0
0.026623 0.004826 0.007883 0
-0.027157 0.006929 0.008102 0
0.026098 0.007189 0.007940 0
-0.026621 0.009233 0.007853 0
0.025347 0.009635 0.007683 0
0.025755 0.008521 0.007944 0
-0.025650 0.011520 0.008365 0
0.024304 0.011804 0.008242 0
-0.024540 0.013559 0.007876 0
-0.023746 0.014653 0.008689 0
0.022707 0.014358 0.007702 0
0.023724 0.012865 0.007762 0
-0.022694 0.016168 0.007976 0
0.020544 0.016965 0.008330 0
0.021860 0.015475 0.007993 0
-0.021631 0.017481 0.007830 0
-0.020587 0.018623 0.008107 0
0.018453 0.018994 0.007927 0
0.019690 0.017834 0.008164 0
-0.019590 0.019521 0.008253 0
-0.018026 0.020865 0.007940 0
0.016124 0.020887 0.008567 0
0.017520 0.019760 0.008343 0
-0.015562 0.022444 0.008186 0
-0.013805 0.023376 0.008244 0
0.011500 0.023627 0.007935 0
0.013191 0.022791 0.008016 0
0.014866 0.021838 0.007696 0
-0.011266 0.024574 0.008178 0
-0.009426 0.025338 0.007613 0
-0.007209 0.025949 0.008033 0
0.004531 0.026163 0.008558 0
0.006331 0.025734 0.008102 0
0.008830 0.024831 0.008008 0
0.010868 0.023998 0.007163 0
-0.004350 0.026386 0.008124 0
-0.002313 0.026548 0.007888 0
0.000010 0.026637 0.007644 0
0.002305 0.026516 0.008055 0
0.003901 0.026304 0.008123 0
-0.006734 -0.025883 0.010142 0
-0.004379 -0.026406 0.009985 0
-0.001904 -0.026740 0.009951 0
-0.000458 -0.026821 0.010545 0
0.001749 -0.026885 0.009917 0
0.004269 -0.026633 0.010673 0
0.005954 -0.026385 0.009990 0
0.008090 -0.025795 0.010304 0
-0.011865 -0.023896 0.010316 0
-0.008881 -0.025212 0.010033 0
-0.007962 -0.025556 0.009838 0
0.009445 -0.025313 0.010512 0
0.011402 -0.024472 0.010201 0
0.012705 -0.023802 0.009798 0
-0.015676 -0.021564 0.010112 0
-0.014326 -0.022458 0.009838 0
0.013920 -0.023009 0.010516 0
0.015777 -0.021773 0.010059 0
0.016674 -0.021116 0.009657 0
-0.018027 -0.019664 0.009892 0
-0.016529 -0.020986 0.010706 0
0.017975 -0.020054 0.010013 0
0.019032 -0.019026 0.011149 0
-0.020249 -0.017434 0.010051 0
-0.019001 -0.018744 0.010216 0
0.020127 -0.017880 0.010189 0
-0.022329 -0.014921 0.010393 0
-0.021125 -0.016416 0.010224 0
0.022018 -0.015547 0.010356 0
-0.024077 -0.012364 0.010218 0
-0.023187 -0.013734 0.010141 0
0.023722 -0.013288 0.010276 0
-0.024661 -0.011410 0.010322 0
0.025158 -0.010951 0.010460 0
0.025679 -0.009885 0.009596 0
-0.026226 -0.008453 0.009153 0
-0.025658 -0.009436 0.010560 0
0.025948 -0.009173 0.010356 0
-0.026636 -0.006515 0.010464 0
0.026637 -0.006411 0.010375 0
-0.027116 -0.004327 0.010422 0
0.026999 -0.004104 0.009973 0
-0.027573 -0.001584 0.010218 0
0.027193 -0.001984 0.010320 0
-0.027648 0.000509 0.010593 0
0.027242 0.000277 0.010269 0
-0.027620 0.002434 0.009873 0
0.027009 0.002730 0.009768 0
-0.027364 0.004584 0.010160 0
0.026634 0.004817 0.010215 0
-0.026924 0.007112 0.010646 0
0.026102 0.007080 0.010460 0
-0.026544 0.008862 0.010231 0
0.025379 0.009384 0.010143 0
0.025717 0.008481 0.010338 0
-0.025467 0.011507 0.010307 0
0.024180 0.011970 0.010294 0
-0.024574 0.013092 0.010556 0
-0.023605 0.014566 0.010363 0
0.022792 0.014163 0.010185 0
0.023384 0.013293 0.010242 0
-0.022400 0.016199 0.010196 0
0.020816 0.016610 0.010380 0
0.021798 0.015477 0.010457 0
-0.020506 0.018374 0.010234 0
0.018338 0.018933 0.010114 0
0.019511 0.017902 0.010115 0
-0.018229 0.020396 0.010231 0
-0.016784 0.021358 0.010643 0
0.015818 0.020979 0.010161 0
0.017042 0.020073 0.009390 0
-0.015196 0.022305 0.010441 0
-0.014180 0.022902 0.010102 0
-0.012293 0.023690 0.010849 0
0.011673 0.023369 0.010120 0
0.013147 0.022623 0.010148 0
-0.010787 0.024542 0.009820 0
-0.009390 0.025028 0.010336 0
-0.006924 0.025844 0.010224 0
0.004194 0.026139 0.009949 0
0.006411 0.025610 0.010114 0
0.008734 0.024751 0.010251 0
0.010055 0.024130 0.010634 0
-0.004605 0.026266 0.010099 0
-0.001897 0.026474 0.009901 0
-0.000585 0.026483 0.010263 0
0.001517 0.026413 0.010456 0
0.003450 0.026242 0.010329 0
-0.006720 -0.025790 0.012088 0
-0.004426 -0.026300 0.012723 0
-0.002953 -0.026532 0.012180 0
-0.000531 -0.026714 0.012546 0
0.001687 -0.026738 0.012455 0
0.003865 -0.026538 0.012565 0
0.006530 -0.026032 0.012363 0
0.007764 -0.025704 0.012646 0
-0.011860 -0.023912 0.012336 0
-0.009301 -0.024977 0.012427 0
-0.008052 -0.025437 0.011473 0
0.009184 -0.025247 0.012785 0
0.011704 -0.024205 0.012180 0
0.012831 -0.023564 0.012573 0
-0.015818 -0.021574 0.012406 0
-0.013909 -0.022799 0.012130 0
0.013698 -0.023030 0.012704 0
0.015616 -0.021790 0.012182 0
-0.018282 -0.019539 0.012222 0
-0.017102 -0.020549 0.011616 0
0.017848 -0.020092 0.012456 0
-0.020406 -0.017310 0.012341 0
0.019990 -0.018032 0.012537 0
-0.022181 -0.015099 0.012336 0
-0.021213 -0.016336 0.013092 0
0.022038 -0.015483 0.012364 0
-0.023321 -0.013430 0.012432 0
0.023254 -0.013891 0.011879 0
0.023779 -0.013164 0.012492 0
-0.024649 -0.011134 0.012604 0
0.025153 -0.010956 0.012418 0
-0.025652 -0.008867 0.012470 0
0.025978 -0.009035 0.012550 0
-0.026620 -0.006003 0.012255 0
-0.026117 -0.007536 0.012723 0
0.026616 -0.006468 0.012181 0
-0.026992 -0.004402 0.012183 0
0.026990 -0.004003 0.012567 0
-0.027404 -0.001836 0.012480 0
0.027162 -0.002265 0.012459 0
-0.027480 0.000956 0.012954 0
0.027252 0.000304 0.012538 0
-0.027372 0.002591 0.012700 0
0.027110 0.002356 0.012037 0
-0.027194 0.004509 0.012465 0
0.026727 0.004741 0.012464 0
-0.026771 0.007277 0.012216 0
0.026108 0.007227 0.012198 0
-0.026379 0.008812 0.012196 0
-0.026041 0.009669 0.012397 0
0.025278 0.009699 0.012313 0
0.025774 0.008386 0.012339 0
-0.024852 0.012194 0.012482 0
0.024270 0.011872 0.012375 0
-0.024061 0.013473 0.012569 0
-0.023607 0.014169 0.012414 0
0.022895 0.014087 0.012626 0
0.023687 0.012933 0.012614 0
-0.022511 0.015659 0.012495 0
0.020559 0.016904 0.012114 0
0.021957 0.015354 0.012738 0
-0.020471 0.018051 0.012624 0
0.018170 0.019064 0.012293 0
0.019468 0.017949 0.012171 0
-0.018066 0.020290 0.012192 0
-0.016533 0.021351 0.012206 0
0.015971 0.020783 0.012376 0
0.017289 0.019777 0.011780 0
-0.014922 0.022184 0.013202 0
-0.013991 0.022750 0.012049 0
-0.012356 0.023422 0.012684 0
0.011471 0.023400 0.012832 0
0.013012 0.022630 0.012747 0
0.014541 0.021742 0.011606 0
-0.010477 0.024255 0.012723 0
-0.009330 0.024754 0.012573 0
-0.006937 0.025622 0.012308 0
-0.004903 0.026047 0.012292 0
0.004095 0.026010 0.012054 0
0.006407 0.025499 0.012098 0
0.008620 0.024717 0.012393 0
-0.002712 0.026243 0.012412 0
0.000098 0.026292 0.012460 0
0.002029 0.026225 0.012212 0
-0.006750 -0.025771 0.014442 0
-0.004612 -0.026241 0.014297 0
-0.002082 -0.026585 0.014236 0
0.000228 -0.026681 0.014433 0
0.002000 -0.026625 0.015040 0
0.004354 -0.026354 0.014668 0
0.006694 -0.025867 0.014543 0
0.007753 -0.025617 0.014188 0
-0.012125 -0.023832 0.014524 0
-0.009167 -0.025058 0.014898 0
-0.007701 -0.025511 0.014316 0
0.009695 -0.024988 0.014741 0
0.011325 -0.024293 0.014479 0
0.012647 -0.023617 0.014430 0
-0.015952 -0.021534 0.014306 0
-0.014139 -0.022706 0.014417 0
0.013729 -0.022956 0.014741 0
0.015716 -0.021699 0.014255 0
-0.018134 -0.019737 0.014466 0
0.017671 -0.020261 0.014680 0
-0.020234 -0.017544 0.014686 0
0.020100 -0.017943 0.014677 0
-0.022260 -0.014982 0.014203 0
-0.021304 -0.016312 0.015299 0
0.021898 -0.015717 0.014596 0
-0.023274 -0.013516 0.014580 0
0.023305 -0.013812 0.014232 0
0.024033 -0.012782 0.014815 0
-0.024687 -0.010988 0.014602 0
0.025032 -0.011160 0.014567 0
-0.025581 -0.008892 0.014576 0
0.025874 -0.009360 0.014592 0
-0.026547 -0.006122 0.014659 0
-0.026089 -0.007536 0.014741 0
0.026614 -0.006541 0.014791 0
-0.027074 -0.003914 0.013964 0
0.027024 -0.004063 0.014891 0
-0.027385 -0.001897 0.014628 0
0.027250 -0.001851 0.014903 0
-0.027497 0.000308 0.014226 0
0.027308 0.000469 0.014607 0
-0.027377 0.002554 0.014643 0
0.027154 0.002639 0.014453 0
-0.027048 0.005247 0.014187 0
0.026805 0.004807 0.014950 0
-0.026684 0.007139 0.014733 0
0.026264 0.006974 0.014557 0
-0.026275 0.008640 0.014338 0
-0.025710 0.010196 0.013851 0
0.025546 0.009224 0.014768 0
0.025821 0.008446 0.014413 0
-0.024845 0.011841 0.014581 0
0.024319 0.011956 0.014527 0
-0.024206 0.012971 0.014484 0
-0.023277 0.014339 0.014668 0
0.022693 0.014529 0.014342 0
0.023778 0.012969 0.014742 0
-0.022474 0.015408 0.014823 0
-0.021292 0.016848 0.014636 0
0.020840 0.016783 0.014280 0
0.021617 0.015891 0.014192 0
-0.020239 0.017946 0.014965 0
-0.019075 0.019144 0.014628 0
0.018388 0.019041 0.014468 0
0.019869 0.017744 0.014259 0
-0.017754 0.020263 0.014843 0
-0.016704 0.021086 0.014344 0
0.015646 0.021065 0.014368 0
0.017306 0.019873 0.014426 0
-0.013853 0.022658 0.014600 0
-0.012033 0.023430 0.014830 0
0.011274 0.023559 0.014426 0
0.013213 0.022597 0.014965 0
-0.010747 0.024007 0.014206 0
-0.008969 0.024682 0.014775 0
-0.007015 0.025406 0.014171 0
-0.004887 0.025884 0.014493 0
-0.003209 0.026096 0.015617 0
0.001790 0.026153 0.014187 0
0.003959 0.025934 0.014631 0
0.006431 0.025432 0.014278 0
0.008680 0.024708 0.014689 0
-0.001911 0.026194 0.014596 0
-0.000804 0.026223 0.014171 0
0.001282 0.026178 0.014874 0
-0.006916 -0.025807 0.016650 0
-0.004933 -0.026250 0.016987 0
-0.002573 -0.026570 0.017108 0
-0.000183 -0.026694 0.016703 0
0.002031 -0.026639 0.016514 0
0.003805 -0.026444 0.016706 0
0.006720 -0.025854 0.016730 0
0.007677 -0.025617 0.016758 0
-0.013068 -0.023365 0.015973 0
-0.012059 -0.023924 0.016862 0
-0.008979 -0.025209 0.016883 0
0.008843 -0.025254 0.016626 0
0.011113 -0.024376 0.016544 0
0.012492 -0.023720 0.017027 0
-0.015905 -0.021605 0.016658 0
-0.013907 -0.022898 0.017000 0
0.013497 -0.023156 0.016953 0
0.015506 -0.021905 0.016544 0
-0.018375 -0.019592 0.016572 0
-0.016789 -0.020953 0.016999 0
0.018110 -0.020024 0.016948 0
0.018943 -0.019264 0.016998 0
-0.020366 -0.017556 0.016781 0
0.020287 -0.017859 0.016758 0
-0.022257 -0.015285 0.016798 0
-0.021370 -0.016368 0.016727 0
0.022084 -0.015598 0.016667 0
-0.024241 -0.012423 0.017850 0
-0.023349 -0.013677 0.016786 0
0.023905 -0.013047 0.016677 0
-0.024668 -0.011243 0.016606 0
0.025176 -0.010921 0.016968 0
-0.025692 -0.008768 0.016532 0
0.025940 -0.009164 0.016779 0
-0.026494 -0.006457 0.016900 0
0.026700 -0.006457 0.017195 0
-0.027051 -0.004251 0.016965 0
0.027073 -0.004413 0.017139 0
-0.027442 -0.001738 0.016646 0
0.027319 -0.002050 0.016668 0
-0.027548 0.000275 0.016770 0
0.027416 0.000296 0.017005 0
-0.027426 0.002880 0.016377 0
0.027209 0.002888 0.016414 0
-0.027193 0.004720 0.016833 0
0.026904 0.004734 0.016532 0
-0.026746 0.006888 0.017073 0
0.026353 0.006937 0.016630 0
-0.026239 0.008622 0.016782 0
-0.025701 0.009970 0.016153 0
0.025402 0.009781 0.016330 0
0.025835 0.008711 0.016939 0
-0.024883 0.011645 0.016991 0
0.024568 0.011708 0.016568 0
-0.024107 0.013008 0.016760 0
-0.023108 0.014444 0.016857 0
0.022882 0.014494 0.016127 0
0.023877 0.013104 0.017075 0
-0.022291 0.015502 0.016642 0
-0.021186 0.016745 0.016567 0
0.021800 0.016013 0.016617 0
-0.020092 0.017816 0.017016 0
-0.018917 0.018999 0.016782 0
0.019645 0.018269 0.016508 0
-0.017881 0.019840 0.017627 0
-0.016632 0.020983 0.016479 0
0.015849 0.021136 0.016670 0
0.017603 0.019983 0.017122 0
-0.015305 0.021796 0.017829 0
-0.013919 0.022585 0.017176 0
-0.011900 0.023450 0.016434 0
0.011412 0.023644 0.016469 0
0.013389 0.022684 0.017115 0
0.014919 0.021729 0.016687 0
-0.010477 0.024000 0.016758 0
-0.008734 0.024649 0.016912 0
-0.006663 0.025348 0.016925 0
-0.004534 0.025882 0.016762 0
0.002663 0.026104 0.015978 0
0.004153 0.026004 0.017199 0
0.006310 0.025575 0.016981 0
0.008820 0.024800 0.017002 0
-0.002409 0.026183 0.016758 0
-0.000872 0.026235 0.016452 0
0.001685 0.026233 0.017157 0
-0.007120 -0.025826 0.018851 0
-0.004892 -0.026267 0.019345 0
-0.002431 -0.026583 0.019104 0
-0.000148 -0.026693 0.019076 0
0.001827 -0.026660 0.019227 0
0.003813 -0.026493 0.019055 0
0.006476 -0.025979 0.018720 0
0.007709 -0.025693 0.019052 0
-0.012646 -0.023674 0.018775 0
-0.011484 -0.024236 0.018850 0
-0.008757 -0.025348 0.019142 0
0.008927 -0.025295 0.019076 0
0.010982 -0.024467 0.019010 0
0.012543 -0.023739 0.018968 0
-0.016026 -0.021554 0.018725 0
-0.014121 -0.022788 0.018619 0
0.013827 -0.023034 0.018931 0
0.015712 -0.021898 0.018938 0
-0.018208 -0.019835 0.018919 0
0.018003 -0.020210 0.018998 0
-0.020397 -0.017770 0.019245 0
0.020338 -0.017890 0.018844 0
-0.022488 -0.015408 0.018963 0
0.022180 -0.015605 0.019144 0
-0.024538 -0.012413 0.019733 0
-0.023785 -0.013588 0.018775 0
0.023120 -0.014304 0.019900 0
0.023851 -0.013246 0.019138 0
-0.024748 -0.011689 0.018860 0
0.025009 -0.011368 0.019149 0
-0.025812 -0.008804 0.019097 0
0.025884 -0.009490 0.019019 0
-0.026498 -0.006519 0.018835 0
0.026827 -0.006416 0.019265 0
-0.027121 -0.004033 0.019315 0
0.027284 -0.003789 0.018749 0
-0.027434 -0.001946 0.019043 0
0.027550 -0.001990 0.019476 0
-0.027575 0.000404 0.018470 0
0.027533 0.001085 0.019037 0
-0.027461 0.002836 0.018863 0
0.027414 0.002378 0.018953 0
-0.027189 0.004591 0.019260 0
0.027021 0.004554 0.018625 0
-0.026667 0.006940 0.019351 0
0.026430 0.007110 0.019099 0
-0.026228 0.008474 0.019090 0
-0.025733 0.009579 0.019624 0
0.025420 0.010136 0.018716 0
0.025917 0.008744 0.018686 0
-0.024765 0.011761 0.018865 0
0.024808 0.011584 0.018790 0
-0.023122 0.014259 0.019078 0
0.023174 0.014520 0.018536 0
0.023671 0.013965 0.019545 0
-0.022324 0.015318 0.018593 0
-0.021039 0.016658 0.019059 0
0.021894 0.016309 0.018793 0
-0.020158 0.017539 0.018978 0
-0.018897 0.018774 0.018856 0
0.018862 0.019308 0.019142 0
0.020048 0.018288 0.019069 0
-0.017306 0.020195 0.019479 0
-0.016347 0.021016 0.018791 0
0.016227 0.021127 0.018570 0
0.017398 0.020371 0.018868 0
-0.013700 0.022705 0.019213 0
-0.012233 0.023367 0.019104 0
0.011530 0.023799 0.018450 0
0.013670 0.022760 0.019115 0
0.014732 0.022149 0.019275 0
-0.010535 0.024033 0.019343 0
-0.008831 0.024618 0.019019 0
-0.007163 0.025190 0.019179 0
-0.004302 0.025954 0.019012 0
-0.003479 0.026068 0.018573 0
0.004703 0.026074 0.019214 0
0.006465 0.025729 0.019564 0
0.009086 0.024876 0.019053 0
0.010998 0.024096 0.019119 0
-0.002112 0.026258 0.018997 0
-0.000056 0.026355 0.018856 0
0.002373 0.026313 0.018814 0
0.003643 0.026222 0.018775 0
-0.007239 -0.025775 0.021086 0
-0.004874 -0.026234 0.021662 0
-0.002808 -0.026494 0.021394 0
-0.000384 -0.026647 0.021666 0
0.002316 -0.026656 0.021491 0
0.004121 -0.026493 0.020930 0
0.006210 -0.026126 0.020994 0
0.007770 -0.025754 0.021230 0
-0.012776 -0.023564 0.021582 0
-0.012081 -0.023932 0.021165 0
-0.008783 -0.025331 0.021397 0
0.009176 -0.025261 0.021496 0
0.011500 -0.024223 0.021682 0
0.012725 -0.023619 0.021484 0
-0.015911 -0.021648 0.021116 0
-0.014019 -0.022835 0.020587 0
0.013812 -0.023044 0.021342 0
0.015939 -0.021806 0.021433 0
-0.018307 -0.019892 0.021176 0
0.018072 -0.020204 0.021113 0
0.019176 -0.019153 0.020889 0
-0.020578 -0.017843 0.021171 0
0.020166 -0.018073 0.021434 0
0.021435 -0.016586 0.020235 0
-0.022695 -0.015529 0.021130 0
0.022324 -0.015410 0.021109 0
-0.024349 -0.013085 0.021190 0
-0.023639 -0.014081 0.020220 0
0.023973 -0.013094 0.021569 0
-0.025134 -0.011326 0.021495 0
0.025137 -0.011219 0.021565 0
0.025801 -0.009909 0.021622 0
-0.026189 -0.008141 0.022065 0
-0.025803 -0.009282 0.021087 0
0.026066 -0.009204 0.021265 0
-0.026610 -0.006394 0.021055 0
0.026939 -0.006460 0.020981 0
-0.027123 -0.004253 0.021270 0
0.027377 -0.004516 0.021230 0
-0.027421 -0.002017 0.021268 0
0.027767 -0.001772 0.021571 0
-0.027485 0.000163 0.021161 0
0.027768 0.000448 0.021447 0
-0.027389 0.002147 0.021303 0
0.027490 0.002838 0.021229 0
-0.027040 0.004585 0.021416 0
0.027065 0.004962 0.021201 0
-0.026589 0.006747 0.020983 0
0.026625 0.006956 0.021508 0
-0.025965 0.008659 0.021320 0
0.026005 0.009105 0.021340 0
-0.024598 0.011695 0.021251 0
0.025205 0.011163 0.020778 0
-0.022921 0.014283 0.021377 0
0.023984 0.013774 0.021224 0
-0.021838 0.015634 0.021196 0
-0.020762 0.016818 0.021243 0
0.022140 0.016410 0.021295 0
-0.019710 0.017899 0.020205 0
-0.018803 0.018754 0.021228 0
0.019766 0.018792 0.021037 0
0.021197 0.017380 0.020727 0
-0.017818 0.019679 0.021466 0
-0.016521 0.020847 0.021290 0
0.016510 0.021304 0.021848 0
0.017618 0.020429 0.020923 0
-0.015353 0.021715 0.022103 0
-0.014151 0.022506 0.020995 0
-0.012241 0.023460 0.021267 0
0.012028 0.023853 0.021581 0
0.013593 0.023017 0.021131 0
0.015156 0.022121 0.021246 0
-0.010786 0.024058 0.021364 0
-0.008765 0.024773 0.021102 0
-0.006901 0.025400 0.021451 0
-0.004724 0.025947 0.021406 0
0.004910 0.026160 0.021310 0
0.006329 0.025866 0.021438 0
0.009072 0.025023 0.021144 0
0.010859 0.024358 0.021507 0
-0.002485 0.026295 0.020902 0
-0.000018 0.026485 0.021117 0
0.001815 0.026483 0.021024 0
0.003816 0.026343 0.021545 0
-0.007020 -0.025847 0.023269 0
-0.004985 -0.026266 0.023565 0
-0.002749 -0.026553 0.023348 0
-0.000733 -0.026719 0.023460 0
0.001864 -0.026758 0.023640 0
0.004229 -0.026566 0.023286 0
0.006379 -0.026185 0.023703 0
0.007932 -0.025753 0.023210 0
-0.012143 -0.023892 0.023243 0
-0.008880 -0.025323 0.023534 0
-0.008076 -0.025556 0.022813 0
0.009122 -0.025307 0.023397 0
0.011224 -0.024331 0.023617 0
0.012579 -0.023631 0.023790 0
-0.015729 -0.021759 0.023335 0
-0.013812 -0.022937 0.023347 0
0.013673 -0.023048 0.023586 0
0.015508 -0.021987 0.023482 0
-0.018802 -0.019632 0.023246 0
-0.016942 -0.020970 0.023661 0
0.017924 -0.020204 0.023474 0
-0.021744 -0.016831 0.023292 0
-0.020792 -0.017837 0.023150 0
0.020207 -0.017941 0.023046 0
-0.022677 -0.015775 0.023202 0
0.021865 -0.015928 0.023231 0
-0.024440 -0.013001 0.023553 0
0.023173 -0.014196 0.023650 0
0.023921 -0.013156 0.023566 0
-0.025361 -0.010906 0.023544 0
0.025141 -0.011236 0.023283 0
0.025832 -0.009914 0.022809 0
-0.026325 -0.007924 0.023736 0
-0.025966 -0.009099 0.023246 0
0.026062 -0.009360 0.023689 0
-0.026640 -0.006734 0.023189 0
0.027026 -0.006518 0.023166 0
-0.027236 -0.004151 0.023509 0
0.027601 -0.003896 0.023415 0
-0.027455 -0.001921 0.023508 0
0.027814 -0.002225 0.023201 0
0.027884 -0.001524 0.023241 0
-0.027444 0.000313 0.023332 0
0.027864 0.000453 0.023058 0
0.027890 0.000017 0.023487 0
-0.027246 0.002592 0.023345 0
0.027677 0.002180 0.023225 0
-0.026882 0.004880 0.023439 0
0.027131 0.004948 0.023817 0
-0.026520 0.006474 0.023153 0
-0.026009 0.008116 0.024203 0
0.026606 0.007260 0.023239 0
-0.025514 0.009440 0.023232 0
0.025971 0.009578 0.023569 0
-0.024629 0.011382 0.023368 0
0.025223 0.011618 0.023148 0
0.025631 0.010618 0.022809 0
-0.022927 0.014153 0.023221 0
0.023975 0.014118 0.023417 0
-0.020833 0.016715 0.023237 0
0.022276 0.016456 0.023478 0
-0.019719 0.017870 0.023497 0
-0.018716 0.018858 0.023059 0
0.020117 0.018624 0.023338 0
-0.017819 0.019730 0.023902 0
-0.016447 0.020940 0.023202 0
0.017731 0.020546 0.023341 0
-0.015229 0.021865 0.024120 0
-0.013834 0.022746 0.023308 0
-0.012384 0.023502 0.023294 0
0.013468 0.023253 0.023466 0
0.015304 0.022217 0.023499 0
-0.010700 0.024237 0.023422 0
-0.009273 0.024769 0.023240 0
-0.007044 0.025502 0.023384 0
-0.005350 0.025927 0.023242 0
0.005881 0.026024 0.023447 0
0.008907 0.025211 0.023561 0
0.010874 0.024498 0.023637 0
-0.004298 0.026226 0.024239 0
-0.002628 0.026385 0.023182 0
-0.000055 0.026576 0.023371 0
0.002014 0.026531 0.023607 0
0.004171 0.026324 0.023599 0
-0.008384 -0.025656 0.026313 0
-0.007210 -0.025958 0.025702 0
-0.004690 -0.026523 0.025577 0
-0.002236 -0.026889 0.025877 0
-0.000543 -0.027017 0.026083 0
0.002068 -0.026966 0.025973 0
0.004261 -0.026739 0.025912 0
0.006066 -0.026390 0.026017 0
0.008035 -0.025811 0.026049 0
-0.012663 -0.023674 0.026844 0
-0.011715 -0.024156 0.025712 0
-0.009113 -0.025330 0.025649 0
0.009564 -0.025200 0.026125 0
0.011396 -0.024260 0.025710 0
0.012585 -0.023629 0.025858 0
-0.015965 -0.021596 0.025763 0
-0.014022 -0.022816 0.025892 0
0.013729 -0.022973 0.025835 0
0.015613 -0.021804 0.025816 0
-0.018420 -0.019935 0.025872 0
0.017848 -0.020094 0.025897 0
0.019002 -0.019023 0.026056 0
-0.020732 -0.017942 0.025707 0
0.020145 -0.017867 0.025782 0
0.021247 -0.016598 0.025466 0
-0.022653 -0.015731 0.025763 0
0.022182 -0.015417 0.025970 0
-0.024366 -0.012989 0.025763 0
-0.023711 -0.014107 0.025934 0
0.023838 -0.013219 0.025849 0
-0.025115 -0.011354 0.025938 0
0.025137 -0.011190 0.025784 0
0.025832 -0.009880 0.025835 0
-0.026366 -0.007865 0.026169 0
-0.025828 -0.009554 0.025835 0
0.026100 -0.009238 0.025718 0
-0.026692 -0.006717 0.025830 0
0.027002 -0.006658 0.025751 0
-0.027289 -0.003954 0.026033 0
0.027615 -0.003848 0.025791 0
-0.027507 -0.001918 0.025793 0
0.027837 -0.002223 0.026065 0
0.027894 -0.001598 0.025880 0
-0.027506 -0.000008 0.025606 0
0.027845 0.001102 0.025840 0
0.027897 0.000168 0.026054 0
-0.027317 0.002390 0.026042 0
0.027611 0.002572 0.025552 0
-0.026924 0.004755 0.025788 0
0.027103 0.004849 0.026037 0
-0.026492 0.006683 0.025939 0
0.026658 0.006789 0.026007 0
-0.025763 0.008939 0.025735 0
0.025993 0.009428 0.025922 0
-0.024500 0.011723 0.025608 0
0.025166 0.011819 0.026016 0
0.025670 0.010570 0.025290 0
-0.023901 0.012842 0.026043 0
-0.022693 0.014637 0.025769 0
0.023912 0.014305 0.025717 0
-0.021974 0.015572 0.026171 0
-0.020987 0.016673 0.025490 0
0.022199 0.016610 0.025794 0
-0.020341 0.017456 0.026552 0
-0.018775 0.018910 0.025781 0
0.020192 0.018702 0.025919 0
-0.017382 0.020195 0.025580 0
-0.016604 0.020886 0.025808 0
0.016353 0.021656 0.025390 0
0.017785 0.020696 0.025824 0
0.019091 0.019631 0.025683 0
-0.014092 0.022682 0.025814 0
-0.012368 0.023630 0.025846 0
0.013408 0.023401 0.025635 0
0.015108 0.022483 0.025953 0
-0.010865 0.024348 0.026116 0
-0.009354 0.024947 0.025904 0
-0.006769 0.025794 0.026074 0
-0.005694 0.026071 0.026393 0
0.006216 0.025982 0.025816 0
0.008688 0.025406 0.026033 0
0.010893 0.024631 0.025826 0
0.012135 0.024084 0.026141 0
-0.004426 0.026299 0.025835 0
-0.002567 0.026525 0.025619 0
-0.000217 0.026646 0.025800 0
0.002242 0.026542 0.025788 0
0.004246 0.026314 0.026100 0
-0.008475 -0.025701 0.027945 0
-0.007121 -0.026184 0.028466 0
-0.004717 -0.026768 0.027830 0
-0.002547 -0.027208 0.028454 0
-0.000108 -0.027275 0.028161 0
0.001745 -0.027269 0.028418 0
0.003840 -0.027033 0.028375 0
0.006193 -0.026523 0.028407 0
0.008270 -0.025867 0.028258 0
-0.012904 -0.023552 0.028363 0
-0.012020 -0.024048 0.028489 0
-0.009345 -0.025329 0.027690 0
0.009446 -0.025394 0.028291 0
0.011302 -0.024471 0.028301 0
0.012953 -0.023564 0.028480 0
-0.016024 -0.021605 0.028459 0
-0.014319 -0.022686 0.028605 0
0.013955 -0.022943 0.028463 0
0.015806 -0.021705 0.028499 0
-0.018481 -0.019856 0.028223 0
-0.017110 -0.020850 0.028281 0
0.017607 -0.020234 0.028243 0
0.019105 -0.018856 0.027606 0
-0.020467 -0.018063 0.028164 0
0.020180 -0.017750 0.028066 0
-0.022517 -0.015650 0.028321 0
0.021887 -0.015712 0.028250 0
-0.024334 -0.012732 0.028157 0
-0.023649 -0.013904 0.028649 0
0.023154 -0.014066 0.027483 0
0.023669 -0.013300 0.028388 0
-0.025095 -0.011037 0.028209 0
0.024955 -0.011361 0.028029 0
-0.025830 -0.009123 0.028252 0
0.026096 -0.009185 0.028314 0
-0.026641 -0.006463 0.028210 0
0.027055 -0.006553 0.028465 0
-0.027043 -0.004500 0.028898 0
0.027595 -0.004131 0.028336 0
-0.027481 -0.001707 0.028490 0
0.027817 -0.002689 0.028476 0
0.027899 -0.001683 0.028062 0
-0.027536 0.000515 0.028337 0
0.027852 0.000914 0.027821 0
0.027891 0.000242 0.028434 0
-0.027376 0.002511 0.028397 0
0.027503 0.002921 0.028195 0
-0.026952 0.004949 0.028183 0
0.026988 0.005166 0.028665 0
-0.026487 0.006989 0.028468 0
0.026567 0.007010 0.028204 0
-0.025727 0.009269 0.028201 0
0.025948 0.009480 0.028371 0
-0.024649 0.011688 0.028352 0
0.025154 0.011751 0.028194 0
0.025667 0.010437 0.027709 0
-0.023164 0.014161 0.028171 0
0.023910 0.014218 0.028180 0
-0.022510 0.015150 0.028306 0
-0.021166 0.016772 0.028203 0
0.022241 0.016525 0.028241 0
-0.020233 0.017701 0.027934 0
-0.018929 0.018921 0.028275 0
0.020193 0.018791 0.028132 0
0.021486 0.017420 0.028369 0
-0.018134 0.019613 0.028327 0
-0.016649 0.020880 0.028028 0
0.017802 0.020868 0.028195 0
0.019150 0.019750 0.028130 0
-0.015513 0.021762 0.028730 0
-0.013891 0.022893 0.028387 0
-0.012372 0.023784 0.028273 0
0.013837 0.023333 0.028102 0
0.015438 0.022454 0.028373 0
-0.010865 0.024562 0.028856 0
-0.009041 0.025218 0.028034 0
-0.006630 0.025947 0.028090 0
-0.005768 0.026141 0.028534 0
0.006310 0.026017 0.028377 0
0.008655 0.025535 0.028367 0
0.011164 0.024678 0.028127 0
0.012360 0.024066 0.027572 0
-0.004368 0.026369 0.028167 0
-0.002694 0.026558 0.028397 0
-0.000570 0.026632 0.028012 0
0.001913 0.026545 0.028257 0
0.003900 0.026356 0.028730 0
-0.008446 -0.025714 0.030674 0
-0.007056 -0.026238 0.030579 0
-0.004775 -0.026914 0.030045 0
-0.002254 -0.027349 0.030341 0
-0.000227 -0.027469 0.030788 0
0.001867 -0.027388 0.030517 0
0.004303 -0.027070 0.030264 0
0.006656 -0.026516 0.030238 0
0.008499 -0.025925 0.030412 0
-0.012832 -0.023608 0.030350 0
-0.011899 -0.024095 0.030644 0
-0.009617 -0.025202 0.030576 0
0.009576 -0.025473 0.030058 0
0.011167 -0.024723 0.030664 0
0.012734 -0.023845 0.030414 0
-0.016137 -0.021560 0.030375 0
-0.014088 -0.022858 0.030174 0
0.013819 -0.023182 0.030287 0
0.015727 -0.021887 0.030529 0
0.016710 -0.021098 0.030513 0
-0.018395 -0.019823 0.030464 0
0.017828 -0.020116 0.030681 0
0.019030 -0.018923 0.029232 0
-0.020774 -0.017524 0.030418 0
0.019946 -0.017988 0.030243 0
-0.022619 -0.015199 0.030412 0
0.021902 -0.015584 0.030615 0
-0.023988 -0.012974 0.030285 0
-0.023541 -0.013696 0.030709 0
0.023140 -0.013884 0.030255 0
0.023943 -0.012679 0.030768 0
-0.024733 -0.011379 0.030667 0
0.024986 -0.011134 0.030051 0
0.025705 -0.009833 0.031197 0
-0.025719 -0.008831 0.030456 0
0.025922 -0.009494 0.030449 0
-0.026569 -0.006108 0.030316 0
-0.026115 -0.007536 0.030878 0
0.027092 -0.006477 0.030363 0
-0.026936 -0.004285 0.030898 0
0.027634 -0.004030 0.030582 0
-0.027311 -0.002193 0.030663 0
0.027817 -0.002818 0.030605 0
0.027911 -0.001507 0.030243 0
-0.027504 0.000060 0.030219 0
0.027848 0.000525 0.030705 0
0.027891 -0.000315 0.030605 0
-0.027362 0.002372 0.030544 0
0.027542 0.002509 0.030468 0
-0.026915 0.005117 0.030008 0
0.027098 0.004567 0.030878 0
-0.026514 0.006823 0.030490 0
0.026667 0.006507 0.030521 0
-0.025738 0.009234 0.030507 0
0.025929 0.009373 0.030525 0
-0.024651 0.011711 0.030307 0
0.025147 0.011508 0.030388 0
-0.024123 0.012718 0.030157 0
-0.022825 0.014787 0.030266 0
0.023861 0.014055 0.030231 0
-0.022239 0.015576 0.030297 0
-0.021261 0.016792 0.030398 0
0.022047 0.016578 0.030692 0
-0.020179 0.017864 0.030448 0
-0.018951 0.018974 0.030169 0
0.020288 0.018619 0.030541 0
0.021259 0.017417 0.031427 0
-0.016657 0.020856 0.030625 0
0.017885 0.020818 0.030559 0
0.019104 0.019780 0.030257 0
-0.014167 0.022709 0.030464 0
-0.012495 0.023754 0.030878 0
0.013826 0.023367 0.030567 0
0.015477 0.022457 0.030427 0
-0.010749 0.024631 0.030756 0
-0.009004 0.025311 0.030316 0
-0.006930 0.025913 0.030867 0
0.006586 0.025984 0.030388 0
0.008882 0.025486 0.030564 0
0.011133 0.024720 0.030342 0
-0.004435 0.026351 0.030219 0
-0.002331 0.026507 0.030824 0
-0.000572 0.026578 0.030061 0
0.001905 0.026482 0.030257 0
0.004446 0.026268 0.029937 0
-0.008224 -0.025693 0.032103 0
-0.007330 -0.025905 0.033004 0
-0.004900 -0.026763 0.032182 0
-0.003071 -0.027100 0.032980 0
-0.000875 -0.027420 0.032663 0
0.001609 -0.027407 0.033053 0
0.004150 -0.027120 0.032640 0
0.006639 -0.026571 0.032182 0
0.008436 -0.025991 0.032520 0
-0.012052 -0.023912 0.032827 0
-0.008852 -0.025320 0.033052 0
0.009597 -0.025542 0.032177 0
0.011035 -0.024840 0.032439 0
0.013161 -0.023670 0.032472 0
-0.016189 -0.021474 0.032429 0
-0.014057 -0.022801 0.032540 0
0.015485 -0.022124 0.032494 0
-0.018459 -0.019625 0.032712 0
0.018140 -0.019827 0.032718 0
-0.020419 -0.017660 0.032456 0
0.019919 -0.017951 0.032367 0
-0.022156 -0.015360 0.032645 0
0.021823 -0.015512 0.032864 0
-0.023924 -0.012668 0.031834 0
-0.023160 -0.013815 0.032622 0
0.023217 -0.013523 0.032700 0
0.023698 -0.012827 0.032655 0
-0.024623 -0.011008 0.032796 0
0.024999 -0.010887 0.032059 0
-0.025489 -0.008815 0.033010 0
0.025972 -0.009089 0.032617 0
-0.026484 -0.005760 0.032681 0
-0.026007 -0.007495 0.032570 0
0.026916 -0.006541 0.032692 0
-0.026768 -0.004488 0.032791 0
0.027414 -0.004240 0.032920 0
-0.027228 -0.001901 0.032536 0
0.027749 -0.001994 0.032361 0
0.027877 -0.001486 0.031624 0
-0.027358 0.000469 0.032752 0
0.027746 0.000118 0.032489 0
-0.027228 0.002584 0.032791 0
0.027387 0.002637 0.032455 0
-0.026909 0.004638 0.032569 0
0.026913 0.004821 0.032652 0
-0.026561 0.006295 0.032372 0
-0.026046 0.008062 0.032324 0
0.026405 0.007115 0.032698 0
-0.025693 0.008989 0.032822 0
0.025919 0.008975 0.032485 0
-0.024622 0.011582 0.032470 0
0.024986 0.011439 0.032387 0
-0.022979 0.014353 0.032537 0
0.023088 0.014666 0.033179 0
0.023842 0.013642 0.032478 0
-0.022261 0.015412 0.032100 0
-0.021278 0.016563 0.032561 0
0.021977 0.016313 0.032570 0
-0.020396 0.017465 0.032961 0
-0.018749 0.018990 0.032544 0
0.019931 0.018635 0.032756 0
-0.017533 0.019955 0.032645 0
-0.016253 0.020933 0.032833 0
0.016293 0.021665 0.032668 0
0.017728 0.020656 0.032518 0
0.018917 0.019542 0.032918 0
-0.014909 0.021981 0.032354 0
-0.013877 0.022672 0.032478 0
-0.012495 0.023481 0.032895 0
0.013806 0.023103 0.032737 0
0.014991 0.022426 0.032881 0
-0.011053 0.024266 0.032619 0
-0.009629 0.024901 0.032705 0
-0.006924 0.025785 0.032825 0
-0.005576 0.026109 0.032448 0
0.004277 0.026132 0.033310 0
0.005932 0.026004 0.032512 0
0.008515 0.025441 0.032535 0
0.010898 0.024562 0.032766 0
0.012422 0.023991 0.031771 0
-0.004333 0.026252 0.033113 0
-0.002463 0.026359 0.032878 0
-0.000039 0.026408 0.032556 0
0.002180 0.026341 0.032489 0
0.004252 0.026222 0.032141 0
-0.006530 -0.025817 0.034806 0
-0.004700 -0.026306 0.035058 0
-0.002429 -0.026899 0.034854 0
-0.000509 -0.027223 0.034738 0
0.001820 -0.027233 0.034915 0
0.004511 -0.026875 0.035368 0
0.006206 -0.026575 0.034619 0
0.008156 -0.025998 0.034588 0
-0.011473 -0.023874 0.034790 0
-0.009009 -0.024917 0.034792 0
-0.007158 -0.025497 0.035266 0
0.009480 -0.025467 0.034666 0
0.010926 -0.024751 0.034655 0
0.012968 -0.023696 0.034635 0
-0.015678 -0.021552 0.034518 0
-0.014168 -0.022408 0.034848 0
-0.012379 -0.023116 0.035868 0
0.013729 -0.023255 0.034913 0
0.015747 -0.021864 0.034681 0
-0.018042 -0.019756 0.034393 0
-0.016513 -0.020773 0.035312 0
0.018029 -0.019720 0.034902 0
-0.020075 -0.017594 0.034887 0
0.019853 -0.017649 0.034898 0
-0.021893 -0.015373 0.034182 0
-0.021419 -0.015907 0.034761 0
0.020944 -0.016181 0.035201 0
0.021763 -0.015152 0.034919 0
-0.022880 -0.013593 0.034769 0
0.022742 -0.013747 0.034829 0
0.023612 -0.012477 0.034865 0
-0.024224 -0.011138 0.034610 0
0.024382 -0.011308 0.034732 0
-0.025076 -0.009176 0.034760 0
0.025507 -0.009559 0.034415 0
0.025851 -0.008716 0.034703 0
-0.026362 -0.005490 0.034461 0
-0.025933 -0.006538 0.035090 0
0.026425 -0.006808 0.035050 0
-0.026676 -0.003813 0.034976 0
0.026960 -0.003875 0.035184 0
-0.026948 -0.002024 0.035160 0
0.027266 -0.001995 0.034832 0
-0.027120 0.000844 0.035067 0
0.027257 0.000572 0.034816 0
-0.026978 0.002879 0.034916 0
0.027025 0.002377 0.034999 0
-0.026646 0.004803 0.035055 0
0.026576 0.004903 0.034898 0
-0.026340 0.006373 0.034371 0
-0.026011 0.007641 0.033917 0
0.026095 0.007272 0.034559 0
-0.025229 0.009510 0.034698 0
0.025304 0.009468 0.034913 0
0.025761 0.008557 0.034543 0
-0.024470 0.011221 0.034926 0
-0.023772 0.012636 0.034913 0
0.024382 0.011784 0.034807 0
-0.022765 0.014244 0.034658 0
0.022945 0.014361 0.034662 0
0.023841 0.012881 0.034820 0
-0.022137 0.015094 0.034655 0
-0.020810 0.016577 0.035086 0
0.020966 0.016610 0.035323 0
0.021704 0.016092 0.034377 0
-0.019704 0.017879 0.034083 0
-0.018634 0.018696 0.034831 0
0.018162 0.019194 0.035691 0
0.019744 0.018127 0.034732 0
-0.017375 0.019647 0.034995 0
-0.016244 0.020485 0.034990 0
-0.014553 0.021456 0.035807 0
0.016098 0.021156 0.034768 0
0.017335 0.020338 0.034541 0
-0.013491 0.022440 0.034697 0
-0.012062 0.023264 0.034790 0
0.011503 0.023687 0.035188 0
0.013462 0.022743 0.034825 0
0.014761 0.022061 0.034524 0
-0.010516 0.024019 0.035049 0
-0.009015 0.024706 0.034853 0
-0.007229 0.025319 0.034928 0
-0.005069 0.025868 0.034703 0
-0.002583 0.025972 0.035348 0
-0.000179 0.025961 0.035542 0
0.002203 0.026035 0.035048 0
0.004289 0.025967 0.034701 0
0.006082 0.025697 0.034758 0
0.009094 0.024848 0.034919 0
0.010277 0.024558 0.034138 0
-0.001168 0.026234 0.034009 0
0.001222 0.026220 0.033979 0
-0.004402 -0.025821 0.037168 0
-0.002249 -0.026350 0.037288 0
0.000090 -0.026812 0.037078 0
0.002011 -0.026907 0.036931 0
0.003972 -0.026656 0.037229 0
0.006063 -0.026285 0.037033 0
0.007875 -0.025767 0.036910 0
-0.010483 -0.023733 0.036758 0
-0.009024 -0.024267 0.036939 0
-0.006687 -0.025156 0.036900 0
0.009044 -0.025271 0.036958 0
0.011458 -0.024074 0.037161 0
0.012649 -0.023545 0.036799 0
-0.015049 -0.021365 0.036507 0
-0.014093 -0.021793 0.036945 0
-0.011984 -0.022859 0.037101 0
0.013524 -0.022913 0.037434 0
0.015592 -0.021649 0.036868 0
-0.017632 -0.019295 0.036898 0
-0.016306 -0.020129 0.037368 0
0.017568 -0.019707 0.037008 0
-0.019799 -0.017443 0.036495 0
-0.018567 -0.018185 0.037605 0
0.018250 -0.018480 0.037767 0
0.019548 -0.017282 0.036914 0
-0.021919 -0.014610 0.036608 0
-0.020801 -0.016059 0.037111 0
0.020472 -0.015733 0.037401 0
0.021542 -0.014770 0.036547 0
-0.022597 -0.013286 0.036958 0
0.022054 -0.013619 0.037281 0
-0.023983 -0.010422 0.036802 0
-0.023367 -0.011306 0.037550 0
0.023155 -0.011480 0.038059 0
0.024038 -0.010928 0.036905 0
-0.024570 -0.009049 0.036798 0
0.025142 -0.008811 0.037059 0
-0.025184 -0.006886 0.037177 0
0.025377 -0.007248 0.038049 0
0.025950 -0.006562 0.036973 0
-0.026319 -0.003932 0.036442 0
-0.025886 -0.004113 0.037284 0
0.026248 -0.004221 0.037239 0
-0.026542 -0.001518 0.036981 0
0.026543 -0.001545 0.037075 0
-0.026649 0.000194 0.036892 0
0.026652 0.000532 0.036930 0
-0.026595 0.002475 0.037016 0
0.026306 0.002486 0.037284 0
-0.026423 0.004483 0.036753 0
-0.026084 0.004794 0.037486 0
0.025390 0.005864 0.037943 0
0.025980 0.004968 0.037086 0
-0.025600 0.007025 0.036988 0
0.025521 0.006949 0.036927 0
0.025814 0.006366 0.036665 0
-0.024851 0.009225 0.036877 0
0.024527 0.009411 0.037263 0
-0.024363 0.010606 0.036683 0
-0.023569 0.011985 0.037023 0
0.023017 0.012478 0.037557 0
0.023923 0.011189 0.037035 0
-0.022396 0.013953 0.036895 0
0.022150 0.014260 0.037004 0
-0.020622 0.016063 0.037272 0
0.020230 0.016342 0.037353 0
0.021553 0.015124 0.036940 0
-0.019594 0.017326 0.036769 0
-0.018369 0.018255 0.037122 0
-0.016978 0.019033 0.037930 0
0.017962 0.018595 0.037232 0
0.019294 0.017857 0.036329 0
-0.015820 0.020156 0.037170 0
-0.014189 0.021224 0.037281 0
0.014072 0.021300 0.037497 0
0.015485 0.020715 0.036822 0
0.016917 0.019738 0.036661 0
-0.013006 0.022237 0.036504 0
-0.011763 0.022754 0.036996 0
-0.009293 0.023676 0.037463 0
0.011230 0.023109 0.037239 0
0.012857 0.022239 0.037114 0
-0.008343 0.024178 0.037220 0
-0.006898 0.024754 0.036930 0
-0.005000 0.025020 0.037409 0
-0.002753 0.025416 0.037126 0
-0.000323 0.025605 0.036917 0
0.001661 0.025422 0.037575 0
0.003721 0.025466 0.037203 0
0.006152 0.025140 0.037057 0
0.008300 0.024529 0.037054 0
-0.002315 -0.025725 0.039088 0
-0.000098 -0.026003 0.039493 0
0.001946 -0.026146 0.039315 0
0.003892 -0.025940 0.039525 0
0.005961 -0.025815 0.038880 0
-0.008601 -0.023643 0.038905 0
-0.007088 -0.024045 0.039325 0
-0.004826 -0.024854 0.039291 0
-0.002791 -0.025389 0.039476 0
0.005194 -0.025423 0.040180 0
0.006807 -0.025409 0.039309 0
0.008733 -0.024714 0.039286 0
0.011266 -0.023750 0.038746 0
-0.013346 -0.021449 0.038625 0
-0.011807 -0.021907 0.039358 0
0.011756 -0.022957 0.040023 0
0.013567 -0.022214 0.039334 0
0.015091 -0.021413 0.038758 0
-0.016095 -0.019361 0.039097 0
-0.014125 -0.020407 0.039646 0
0.015610 -0.020552 0.039367 0
0.017048 -0.019381 0.038818 0
-0.018350 -0.017579 0.039175 0
-0.016544 -0.018333 0.040146 0
0.017917 -0.017822 0.039371 0
-0.020178 -0.015757 0.039250 0
0.018266 -0.016487 0.040182 0
0.019653 -0.015609 0.039165 0
-0.022297 -0.012654 0.039070 0
-0.021180 -0.013625 0.040057 0
0.020667 -0.013395 0.039908 0
0.021573 -0.012844 0.039224 0
-0.022666 -0.011386 0.039476 0
0.022351 -0.011127 0.039796 0
0.023813 -0.010079 0.038640 0
-0.024188 -0.008316 0.038515 0
-0.023400 -0.009156 0.039608 0
0.023196 -0.009415 0.040116 0
0.024058 -0.009274 0.039022 0
-0.024523 -0.006142 0.039079 0
-0.023740 -0.007287 0.039944 0
0.024861 -0.006668 0.039369 0
-0.024876 -0.004162 0.039234 0
0.025390 -0.003974 0.039191 0
0.025897 -0.003306 0.038366 0
-0.024970 -0.001901 0.039645 0
0.025770 -0.001855 0.038804 0
-0.025379 0.000296 0.039318 0
0.025325 0.000175 0.039551 0
0.025801 0.000232 0.038791 0
-0.025435 0.002858 0.039386 0
0.025259 0.003129 0.039278 0
0.025744 0.002422 0.038628 0
-0.025381 0.004762 0.039118 0
0.024939 0.004671 0.039306 0
-0.024680 0.007032 0.039414 0
0.024351 0.006985 0.039197 0
-0.024319 0.008822 0.038861 0
-0.023105 0.010190 0.040083 0
0.022872 0.009158 0.039967 0
0.023860 0.008763 0.038969 0
-0.022825 0.011913 0.039020 0
0.022487 0.011695 0.039106 0
-0.021804 0.013697 0.038804 0
-0.020830 0.014499 0.039496 0
0.020284 0.014051 0.039947 0
0.021764 0.012965 0.039201 0
-0.020181 0.015396 0.039300 0
-0.018920 0.016479 0.039652 0
0.018097 0.016681 0.039665 0
0.019504 0.015605 0.039323 0
-0.017835 0.017640 0.039376 0
-0.016495 0.018642 0.039483 0
0.015895 0.018752 0.039503 0
0.017856 0.017821 0.038607 0
-0.015381 0.019844 0.038781 0
-0.013947 0.020575 0.039110 0
-0.012287 0.021088 0.039851 0
0.011628 0.021555 0.039662 0
0.013506 0.020789 0.039101 0
0.014620 0.019989 0.039099 0
-0.011044 0.022275 0.038892 0
-0.009504 0.022734 0.039218 0
-0.006857 0.023382 0.039635 0
0.006841 0.023690 0.039791 0
0.008956 0.023071 0.039521 0
0.010756 0.022393 0.039179 0
-0.006762 0.024004 0.038652 0
-0.004449 0.024344 0.039056 0
-0.002346 0.024678 0.039088 0
-0.000281 0.024792 0.039107 0
0.002125 0.024627 0.039554 0
0.004357 0.024642 0.039239 0
0.005993 0.024524 0.038829 0
0.007677 0.023991 0.038947 0
0.001626 -0.025691 0.040461 0
-0.006273 -0.023628 0.040836 0
-0.004254 -0.024030 0.041301 0
-0.002193 -0.024266 0.041830 0
-0.000075 -0.024974 0.041327 0
0.002112 -0.025149 0.041253 0
0.004144 -0.025096 0.041092 0
0.006340 -0.024330 0.041681 0
0.008912 -0.023770 0.041249 0
0.010172 -0.023405 0.040925 0
-0.010528 -0.021582 0.041152 0
-0.009127 -0.021989 0.041523 0
-0.007078 -0.022663 0.041822 0
-0.004430 -0.023258 0.042433 0
0.008462 -0.023052 0.042696 0
0.011384 -0.022189 0.041766 0
0.013221 -0.021498 0.041067 0
-0.015015 -0.018917 0.040970 0
-0.013984 -0.019416 0.041233 0
-0.012087 -0.020126 0.041945 0
0.013560 -0.020196 0.042176 0
0.015230 -0.019638 0.041057 0
-0.016448 -0.017539 0.041276 0
-0.014387 -0.018311 0.042055 0
0.015859 -0.017908 0.041854 0
0.016935 -0.017248 0.041234 0
-0.018588 -0.015534 0.041440 0
-0.016528 -0.016238 0.042411 0
0.016297 -0.016351 0.042456 0
0.017710 -0.015681 0.041506 0
0.018998 -0.014651 0.040944 0
-0.020404 -0.013510 0.041251 0
0.018403 -0.013693 0.042040 0
0.019751 -0.013356 0.041059 0
-0.021846 -0.011571 0.040964 0
-0.020897 -0.011199 0.042125 0
0.020248 -0.011046 0.041983 0
0.021610 -0.010785 0.040986 0
-0.022518 -0.009353 0.041145 0
-0.021413 -0.009003 0.042373 0
0.020812 -0.009308 0.042374 0
0.022153 -0.008951 0.041473 0
-0.022576 -0.006407 0.041730 0
0.022643 -0.006510 0.041999 0
0.023801 -0.006548 0.040969 0
-0.023045 -0.004072 0.041498 0
0.023334 -0.003862 0.042038 0
0.024090 -0.004268 0.041132 0
-0.024129 -0.001635 0.040677 0
-0.022761 -0.001956 0.041836 0
-0.021584 -0.001123 0.042681 0
0.024171 -0.001932 0.041264 0
-0.024193 0.000450 0.040793 0
-0.023019 0.000343 0.041749 0
0.023094 -0.000219 0.042429 0
0.024082 0.000314 0.041332 0
-0.024308 0.002510 0.040825 0
-0.022920 0.002389 0.041923 0
0.023145 0.002682 0.041946 0
0.024031 0.002493 0.041109 0
-0.024362 0.004669 0.040706 0
-0.022657 0.004591 0.042163 0
0.022539 0.005246 0.041928 0
0.023727 0.004742 0.040963 0
-0.023918 0.007173 0.040600 0
-0.022780 0.006768 0.041857 0
-0.021490 0.007895 0.042664 0
0.022363 0.006841 0.041557 0
-0.022600 0.009227 0.041366 0
-0.021529 0.009165 0.042306 0
0.020365 0.009281 0.042368 0
0.021864 0.009387 0.041027 0
-0.022217 0.010943 0.040883 0
-0.020802 0.011620 0.041782 0
-0.019185 0.012433 0.042523 0
0.018081 0.012386 0.042692 0
0.019845 0.011625 0.041837 0
0.021386 0.011179 0.040703 0
-0.020174 0.013830 0.040935 0
-0.018616 0.013821 0.042189 0
0.017695 0.014201 0.041861 0
0.019450 0.013403 0.041194 0
-0.017903 0.016088 0.041143 0
-0.016141 0.016552 0.042130 0
0.015696 0.016668 0.041538 0
0.017353 0.015574 0.041187 0
-0.015532 0.018188 0.041101 0
-0.014226 0.018624 0.041536 0
-0.012089 0.018939 0.042352 0
0.011519 0.018924 0.042468 0
0.013520 0.018477 0.041578 0
0.015442 0.017698 0.040950 0
-0.012914 0.019842 0.041061 0
-0.011276 0.020493 0.041231 0
-0.009042 0.020822 0.041835 0
-0.006525 0.021472 0.042086 0
0.006904 0.021320 0.042526 0
0.009189 0.020951 0.041869 0
0.011340 0.020528 0.041101 0
0.012382 0.020071 0.040902 0
-0.008460 0.021939 0.040964 0
-0.006533 0.022510 0.041016 0
-0.004721 0.022630 0.041426 0
-0.002194 0.022885 0.041696 0
-0.000087 0.023381 0.041382 0
0.001935 0.023056 0.041871 0
0.004285 0.022854 0.041833 0
0.006683 0.022581 0.041348 0
0.008045 0.022514 0.040833 0
0.002373 0.024087 0.040476 0
-0.001957 -0.023602 0.042907 0
-0.000229 -0.023741 0.043075 0
0.002359 -0.023778 0.043152 0
0.004413 -0.023749 0.043005 0
0.005716 -0.023632 0.042934 0
-0.008605 -0.021342 0.042857 0
-0.006652 -0.021899 0.043195 0
-0.004372 -0.021939 0.043937 0
-0.002556 -0.022461 0.043861 0
-0.000503 -0.022593 0.044109 0
0.001576 -0.022440 0.044487 0
0.004557 -0.022027 0.044883 0
0.006587 -0.022297 0.044260 0
0.008780 -0.022076 0.043731 0
0.010991 -0.021500 0.043055 0
-0.011209 -0.019552 0.043192 0
-0.009049 -0.020022 0.043850 0
-0.006980 -0.020254 0.044444 0
0.009829 -0.020250 0.044924 0
0.011226 -0.019969 0.044189 0
0.013185 -0.019642 0.043048 0
-0.014047 -0.017355 0.043130 0
-0.011443 -0.017719 0.044248 0
-0.010072 -0.018040 0.044693 0
0.013355 -0.017874 0.044006 0
0.014719 -0.017446 0.043226 0
-0.016235 -0.015313 0.043271 0
-0.013638 -0.015391 0.044420 0
-0.012413 -0.016000 0.044647 0
0.013853 -0.015738 0.044650 0
0.015690 -0.015630 0.043346 0
-0.018109 -0.013497 0.043211 0
-0.016300 -0.012965 0.044418 0
-0.014414 -0.013570 0.044890 0
0.015665 -0.013185 0.044294 0
0.017495 -0.013175 0.043050 0
-0.020029 -0.010680 0.043111 0
-0.018279 -0.011227 0.044062 0
-0.016684 -0.011514 0.044842 0
0.015667 -0.011539 0.044840 0
0.017870 -0.011273 0.043576 0
-0.020255 -0.009086 0.043336 0
-0.018489 -0.009079 0.044480 0
0.017798 -0.008855 0.044526 0
0.019676 -0.009187 0.043235 0
-0.020754 -0.006628 0.043246 0
-0.018563 -0.006485 0.044500 0
0.018401 -0.007518 0.044585 0
0.020076 -0.006540 0.043851 0
0.021752 -0.005859 0.042950 0
-0.021082 -0.003964 0.043091 0
-0.018521 -0.004217 0.044427 0
0.019979 -0.004312 0.044526 0
0.022084 -0.004221 0.043107 0
-0.020500 -0.002028 0.043306 0
-0.018230 -0.001804 0.044382 0
0.020138 -0.001511 0.044783 0
0.022149 -0.002212 0.043348 0
-0.020754 0.000095 0.043115 0
-0.018000 0.000817 0.044403 0
0.020060 0.000316 0.044680 0
0.022145 0.000279 0.043256 0
-0.021699 0.002971 0.042783 0
-0.020617 0.002507 0.043327 0
-0.018236 0.003025 0.044478 0
0.019973 0.002734 0.044364 0
0.021833 0.002302 0.043188 0
-0.020634 0.004818 0.043458 0
-0.018565 0.005028 0.044501 0
0.018659 0.004835 0.044748 0
0.020060 0.004938 0.043907 0
0.021763 0.004253 0.042896 0
-0.020989 0.006993 0.043171 0
-0.018253 0.006877 0.044491 0
-0.017062 0.008117 0.044654 0
0.017869 0.006981 0.044727 0
0.020150 0.006969 0.043336 0
-0.020440 0.008951 0.043113 0
-0.018536 0.009218 0.043943 0
-0.016061 0.009098 0.044707 0
0.015886 0.009590 0.044888 0
0.017704 0.009579 0.044015 0
0.019645 0.008904 0.043078 0
-0.019797 0.010618 0.042981 0
-0.018425 0.011824 0.043214 0
-0.016226 0.011723 0.044103 0
-0.014089 0.011638 0.044698 0
