# .PCD v0.7 - Point Cloud Data file format
VERSION 0.7
FIELDS x y z
SIZE 4 4 4
TYPE F F F
COUNT 1 1 1
WIDTH 1460
HEIGHT 1
VIEWPOINT 0 0 0 0 1 0 0
POINTS 1460
DATA ascii
0.25143999 0.076922998 0.85623997
0.25218001 0.076876 0.85571003
0.25290999 0.076828003 0.85518998
0.25395 0.076876 0.85571003
0.25483999 0.076876 0.85571003
0.25573 0.076876 0.85571003
0.25661001 0.076876 0.85571003
0.25749999 0.076876 0.85571003
0.25839001 0.076876 0.85571003
0.25927001 0.076876 0.85571003
0.25999999 0.076828003 0.85518998
0.26089001 0.076828003 0.85518998
0.26194 0.076876 0.85571003
0.26282001 0.076876 0.85571003
0.26387 0.076922998 0.85623997
0.26508999 0.077018 0.85729998
0.26598001 0.077018 0.85729998
0.26686999 0.077018 0.85729998
0.26809001 0.077113003 0.85835999
0.26898 0.077113003 0.85835999
0.26987001 0.077113003 0.85835999
0.27092001 0.077160999 0.85889
0.27164999 0.077113003 0.85835999
-0.15489 0.07677 0.84478998
-0.15401 0.07677 0.84478998
-0.15312999 0.07677 0.84478998
-0.15226001 0.07677 0.84478998
-0.15138 0.07677 0.84478998
-0.15041 0.076724 0.84428
-0.14954001 0.076724 0.84428
-0.14875001 0.07677 0.84478998
-0.14779 0.076724 0.84428
-0.14691 0.076724 0.84428
-0.14603999 0.076724 0.84428
-0.14524999 0.07677 0.84478998
-0.14429 0.076724 0.84428
-0.14341 0.076724 0.84428
-0.14252999 0.076724 0.84428
-0.14173999 0.07677 0.84478998
-0.14078 0.076724 0.84428
-0.13991 0.076724 0.84428
-0.13902999 0.076724 0.84428
-0.13816001 0.076724 0.84428
-0.13728 0.076724 0.84428
-0.13649 0.07677 0.84478998
-0.13552999 0.076724 0.84428
-0.13474 0.07677 0.84478998
-0.13386001 0.07677 0.84478998
-0.13298 0.07677 0.84478998
-0.13211 0.07677 0.84478998
-0.13131 0.076816998 0.84530002
-0.13044 0.076816998 0.84530002
-0.12955999 0.076816998 0.84530002
-0.1286 0.07677 0.84478998
-0.12781 0.076816998 0.84530002
-0.12693 0.076816998 0.84530002
-0.12598 0.07677 0.84478998
-0.12518001 0.076816998 0.84530002
-0.12438 0.076863997 0.84582001
-0.1235 0.076863997 0.84582001
-0.1227 0.076909997 0.84632999
-0.12182 0.076909997 0.84632999
-0.12094 0.076909997 0.84632999
-0.11999 0.076863997 0.84582001
-0.11926 0.076957002 0.84684998
-0.11831 0.076909997 0.84632999
-0.11743 0.076909997 0.84632999
-0.11655 0.076909997 0.84632999
-0.11568 0.076909997 0.84632999
-0.1148 0.076909997 0.84632999
-0.11392 0.076909997 0.84632999
-0.11304 0.076909997 0.84632999
-0.11223 0.076957002 0.84684998
-0.11129 0.076909997 0.84632999
-0.11041 0.076909997 0.84632999
-0.1096 0.076957002 0.84684998
-0.10872 0.076957002 0.84684998
-0.10784 0.076957002 0.84684998
-0.10703 0.077004001 0.84737003
-0.10602 0.076909997 0.84632999
-0.10521 0.076957002 0.84684998
-0.10439 0.077004001 0.84737003
-0.10352 0.077004001 0.84737003
-0.1027 0.077050999 0.84788001
-0.10176 0.077004001 0.84737003
-0.10094 0.077050999 0.84788001
-0.10012 0.077097997 0.8484
-0.099243 0.077097997 0.8484
-0.098362997 0.077097997 0.8484
-0.094843999 0.077097997 0.8484
-0.093964003 0.077097997 0.8484
-0.093084 0.077097997 0.8484
-0.092205003 0.077097997 0.8484
-0.091269001 0.077050999 0.84788001
-0.090389997 0.077050999 0.84788001
-0.089401998 0.076957002 0.84684998
-0.088632002 0.077050999 0.84788001
-0.087751999 0.077050999 0.84788001
-0.086873002 0.077050999 0.84788001
-0.085993998 0.077050999 0.84788001
-0.085115001 0.077050999 0.84788001
-0.084234998 0.077050999 0.84788001
-0.083356 0.077050999 0.84788001
-0.082376003 0.076957002 0.84684998
-0.081547998 0.077004001 0.84737003
-0.080719002 0.077050999 0.84788001
-0.079791002 0.077004001 0.84737003
-0.078911997 0.077004001 0.84737003
-0.078033 0.077004001 0.84737003
-0.077108003 0.076957002 0.84684998
-0.076182999 0.076909997 0.84632999
-0.075305 0.076909997 0.84632999
-0.074336998 0.076816998 0.84530002
-0.073504999 0.076863997 0.84582001
-0.072627999 0.076863997 0.84582001
-0.071708001 0.076816998 0.84530002
-0.070831001 0.076816998 0.84530002
-0.069954999 0.076816998 0.84530002
-0.069119997 0.076863997 0.84582001
-0.068200998 0.076816998 0.84530002
-0.067284003 0.07677 0.84478998
-0.066408001 0.07677 0.84478998
-0.065531999 0.07677 0.84478998
-0.064695001 0.076816998 0.84530002
-0.063896 0.076909997 0.84632999
-0.063096002 0.077004001 0.84737003
-0.062178999 0.076957002 0.84684998
-0.061338 0.077004001 0.84737003
-0.060460001 0.077004001 0.84737003
-0.059617002 0.077050999 0.84788001
-0.058738001 0.077050999 0.84788001
-0.057893999 0.077097997 0.8484
-0.057014 0.077097997 0.8484
-0.056134999 0.077097997 0.8484
-0.055255 0.077097997 0.8484
-0.054407999 0.077145003 0.84891999
-0.053495001 0.077097997 0.8484
-0.052648 0.077145003 0.84891999
-0.051736001 0.077097997 0.8484
-0.050887 0.077145003 0.84891999
-0.049975999 0.077097997 0.8484
-0.049127001 0.077145003 0.84891999
-0.048246 0.077145003 0.84891999
-0.047366001 0.077145003 0.84891999
-0.046486001 0.077145003 0.84891999
-0.045605 0.077145003 0.84891999
-0.044698 0.077097997 0.8484
-0.043818001 0.077097997 0.8484
-0.042938001 0.077097997 0.8484
-0.042059001 0.077097997 0.8484
-0.041179001 0.077097997 0.8484
-0.040298998 0.077097997 0.8484
-0.039418999 0.077097997 0.8484
-0.038562998 0.077145003 0.84891999
-0.037659999 0.077097997 0.8484
-0.036803 0.077145003 0.84891999
-0.035921998 0.077145003 0.84891999
-0.035062999 0.077192001 0.84943998
-0.034203 0.077239998 0.84996003
-0.033321999 0.077239998 0.84996003
-0.032480001 0.077334002 0.85100001
-0.031598002 0.077334002 0.85100001
-0.030696999 0.077287003 0.85048002
-0.029815 0.077287003 0.85048002
-0.028933 0.077287003 0.85048002
-0.028034 0.077239998 0.84996003
-0.027169 0.077287003 0.85048002
-0.026287001 0.077287003 0.85048002
-0.025405001 0.077287003 0.85048002
-0.024507999 0.077239998 0.84996003
-0.023627 0.077239998 0.84996003
-0.022746 0.077239998 0.84996003
-0.021864001 0.077239998 0.84996003
-0.02097 0.077192001 0.84943998
-0.020101 0.077239998 0.84996003
-0.019207999 0.077192001 0.84943998
-0.018328 0.077192001 0.84943998
-0.017457001 0.077239998 0.84996003
-0.016586 0.077287003 0.85048002
-0.015714001 0.077334002 0.85100001
-0.014841 0.077381998 0.85152
-0.013949 0.077334002 0.85100001
-0.013067 0.077334002 0.85100001
-0.012184 0.077334002 0.85100001
-0.011302 0.077334002 0.85100001
-0.010419 0.077334002 0.85100001
-0.0095367003 0.077334002 0.85100001
-0.008649 0.077287003 0.85048002
-0.0077670999 0.077287003 0.85048002
-0.0068808999 0.077239998 0.84996003
-0.0059996 0.077239998 0.84996003
-0.0051151002 0.077192001 0.84943998
-0.0042341999 0.077192001 0.84943998
-0.0033493 0.077097997 0.8484
-0.0024681001 0.077050999 0.84788001
-0.0015859 0.076909997 0.84632999
0.022329001 0.067031004 0.73762
0.023057001 0.066924997 0.73645002
0.023808001 0.066889003 0.73606002
0.024545999 0.066817999 0.73527998
0.025268 0.066712998 0.73411
0.026015 0.066676997 0.73373002
0.02672 0.066537 0.73218
0.027465001 0.066501997 0.73180002
0.028193999 0.066431999 0.73102999
0.028921001 0.066362001 0.73026001
0.029663 0.066326998 0.72987002
0.030371999 0.066223003 0.72873002
0.031095 0.066152997 0.72795999
0.031849999 0.066152997 0.72795999
0.032570999 0.066083997 0.72719997
0.033273 0.065981001 0.72605997
0.033989999 0.065912001 0.72530001
0.034724001 0.065876998 0.72491997
0.035457 0.065843001 0.72455001
0.036189999 0.065808997 0.72417003
0.036920998 0.065774001 0.72378999
0.037652001 0.065739997 0.72341001
0.038382001 0.065706 0.72303998
0.039112002 0.065672003 0.72266001
0.039840002 0.065637998 0.72228998
0.040568002 0.065604001 0.72191
0.041296002 0.065569997 0.72153997
0.042043999 0.065569997 0.72153997
0.042725001 0.065467998 0.72040999
0.043450002 0.065434001 0.72004002
0.044174001 0.065399997 0.71967
0.044920001 0.065399997 0.71967
0.045666002 0.065399997 0.71967
0.046388 0.065366 0.71929997
0.047109999 0.065332003 0.71891999
0.047855001 0.065332003 0.71891999
0.048601002 0.065332003 0.71891999
0.049346 0.065332003 0.71891999
0.050066002 0.065297998 0.71855003
0.050836999 0.065332003 0.71891999
0.051583 0.065332003 0.71891999
0.052301001 0.065297998 0.71855003
0.053018998 0.065265 0.71818
0.053792 0.065297998 0.71855003
0.054536998 0.065297998 0.71855003
0.055282 0.065297998 0.71855003
0.055998001 0.065265 0.71818
0.056772001 0.065297998 0.71855003
0.057517 0.065297998 0.71855003
0.058292001 0.065332003 0.71891999
0.059037998 0.065332003 0.71891999
0.059783 0.065332003 0.71891999
0.060529001 0.065332003 0.71891999
0.061306 0.065366 0.71929997
0.06202 0.065332003 0.71891999
0.062798001 0.065366 0.71929997
0.063543998 0.065366 0.71929997
0.064355999 0.065434001 0.72004002
0.065136999 0.065467998 0.72040999
0.065884002 0.065467998 0.72040999
0.066665001 0.065502003 0.72079003
0.067483 0.065569997 0.72153997
0.068231001 0.065569997 0.72153997
0.068979003 0.065569997 0.72153997
0.069762997 0.065604001 0.72191
0.070548996 0.065637998 0.72228998
0.071335003 0.065672003 0.72266001
0.072084002 0.065672003 0.72266001
0.072871 0.065706 0.72303998
0.073620997 0.065706 0.72303998
0.074409999 0.065739997 0.72341001
0.075199001 0.065774001 0.72378999
0.075989 0.065808997 0.72417003
0.076739997 0.065808997 0.72417003
0.077531002 0.065843001 0.72455001
0.078364 0.065912001 0.72530001
0.079282001 0.06605 0.72681999
0.080288 0.066257998 0.72911
0.081214003 0.066396996 0.73063999
0.081799999 0.066257998 0.72911
0.082211003 0.065981001 0.72605997
0.1205 0.068484999 0.75362003
0.12128 0.068484999 0.75362003
0.12213 0.068521999 0.75402999
0.12284 0.068484999 0.75362003
0.12369 0.068521999 0.75402999
0.12454 0.068559997 0.75444001
0.12525 0.068521999 0.75402999
0.12604 0.068521999 0.75402999
0.12695999 0.068596996 0.75484997
0.12781 0.068634003 0.75525999
0.12865999 0.068672001 0.75567001
0.12937 0.068634003 0.75525999
0.13022999 0.068672001 0.75567001
0.13108 0.068709001 0.75607997
0.13194001 0.068746001 0.75648999
0.13265 0.068709001 0.75607997
0.13365 0.068820998 0.75731999
0.13459 0.068896003 0.75814003
0.13552 0.068971999 0.75897002
0.13661 0.069123 0.76063001
0.13739 0.069123 0.76063001
0.15978999 0.077715002 0.85518998
0.16068 0.077715002 0.85518998
0.16157 0.077715002 0.85518998
0.16245 0.077715002 0.85518998
0.16344 0.077762999 0.85571003
0.16423 0.077715002 0.85518998
0.16501001 0.077666998 0.85465997
0.16599999 0.077715002 0.85518998
0.16678999 0.077666998 0.85465997
0.16767 0.077666998 0.85465997
0.16856 0.077666998 0.85465997
0.16955 0.077715002 0.85518998
0.17044 0.077715002 0.85518998
0.17132001 0.077715002 0.85518998
0.17231999 0.077762999 0.85571003
0.17342 0.077858999 0.85676998
0.1743 0.077858999 0.85676998
0.1753 0.077907003 0.85729998
0.17619 0.077907003 0.85729998
0.17708001 0.077907003 0.85729998
0.17808001 0.077955 0.85782999
0.17885999 0.077907003 0.85729998
0.17964 0.077858999 0.85676998
0.18052 0.077858999 0.85676998
0.18141 0.077858999 0.85676998
0.1823 0.077858999 0.85676998
0.18308 0.077811003 0.85623997
0.18385001 0.077762999 0.85571003
0.18485001 0.077811003 0.85623997
0.18562999 0.077762999 0.85571003
0.1864 0.077715002 0.85518998
0.18705 0.077619001 0.85413998
0.18794 0.077619001 0.85413998
0.18871 0.077572003 0.85360998
0.18948001 0.077523999 0.85308999
0.19047999 0.077572003 0.85360998
0.19137 0.077572003 0.85360998
0.19225 0.077572003 0.85360998
0.19314 0.077572003 0.85360998
0.19414 0.077619001 0.85413998
0.19503 0.077619001 0.85413998
0.19591001 0.077619001 0.85413998
0.19679999 0.077619001 0.85413998
0.19768 0.077619001 0.85413998
0.19857 0.077619001 0.85413998
0.19945 0.077619001 0.85413998
0.20046 0.077666998 0.85465997
0.20135 0.077666998 0.85465997
0.20224001 0.077666998 0.85465997
0.20337 0.077762999 0.85571003
0.20426001 0.077762999 0.85571003
0.20489 0.077666998 0.85465997
0.20591 0.077715002 0.85518998
0.20679 0.077715002 0.85518998
0.20755 0.077666998 0.85465997
0.20830999 0.077619001 0.85413998
0.20933001 0.077666998 0.85465997
0.21021 0.077666998 0.85465997
0.21097 0.077619001 0.85413998
0.21185 0.077619001 0.85413998
0.21287 0.077666998 0.85465997
0.21376 0.077666998 0.85465997
0.21450999 0.077619001 0.85413998
0.21552999 0.077666998 0.85465997
0.21641999 0.077666998 0.85465997
0.21743999 0.077715002 0.85518998
0.21845999 0.077762999 0.85571003
0.21921 0.077715002 0.85518998
0.21996 0.077666998 0.85465997
0.22098 0.077715002 0.85518998
0.22214 0.077811003 0.85623997
0.22289 0.077762999 0.85571003
0.22363999 0.077715002 0.85518998
0.22481 0.077811003 0.85623997
0.22569001 0.077811003 0.85623997
0.22644 0.077762999 0.85571003
0.22761001 0.077858999 0.85676998
0.22864 0.077907003 0.85729998
0.22925 0.077811003 0.85623997
0.23013 0.077811003 0.85623997
0.23088001 0.077762999 0.85571003
0.23176999 0.077762999 0.85571003
0.23280001 0.077811003 0.85623997
0.23397 0.077907003 0.85729998
0.23472001 0.077858999 0.85676998
0.23546 0.077811003 0.85623997
0.23649 0.077858999 0.85676998
0.23752999 0.077907003 0.85729998
0.23827 0.077858999 0.85676998
0.23916 0.077858999 0.85676998
0.24005 0.077858999 0.85676998
0.24094 0.077858999 0.85676998
0.24183001 0.077858999 0.85676998
0.24270999 0.077858999 0.85676998
0.2436 0.077858999 0.85676998
0.24449 0.077858999 0.85676998
0.24538 0.077858999 0.85676998
0.24627 0.077858999 0.85676998
0.24699999 0.077811003 0.85623997
0.24789 0.077811003 0.85623997
0.24863 0.077762999 0.85571003
0.24951001 0.077762999 0.85571003
0.25009 0.077666998 0.85465997
0.25097999 0.077666998 0.85465997
0.25187001 0.077666998 0.85465997
0.25260001 0.077619001 0.85413998
0.25347999 0.077619001 0.85413998
0.25437 0.077619001 0.85413998
0.25525001 0.077619001 0.85413998
0.25613999 0.077619001 0.85413998
0.25718001 0.077666998 0.85465997
0.25806999 0.077666998 0.85465997
0.25896001 0.077666998 0.85465997
0.25968 0.077619001 0.85413998
0.26073 0.077666998 0.85465997
0.26177999 0.077715002 0.85518998
0.26249999 0.077666998 0.85465997
0.26355001 0.077715002 0.85518998
0.26475999 0.077811003 0.85623997
0.26581001 0.077858999 0.85676998
0.2667 0.077858999 0.85676998
0.26776001 0.077907003 0.85729998
0.26881 0.077955 0.85782999
0.26969999 0.077955 0.85782999
0.27059001 0.077955 0.85782999
0.27147999 0.077955 0.85782999
-0.1547 0.077551998 0.84376001
-0.15381999 0.077551998 0.84376001
-0.15295 0.077551998 0.84376001
-0.15207 0.077551998 0.84376001
-0.1512 0.077551998 0.84376001
-0.15023001 0.077505 0.84324998
-0.14936 0.077505 0.84324998
-0.14848 0.077505 0.84324998
-0.14760999 0.077505 0.84324998
-0.14664 0.077458002 0.84274
-0.14586 0.077505 0.84324998
-0.14498 0.077505 0.84324998
-0.14402001 0.077458002 0.84274
-0.14315 0.077458002 0.84274
-0.14236 0.077505 0.84324998
-0.14149 0.077505 0.84324998
-0.14053001 0.077458002 0.84274
-0.13974001 0.077505 0.84324998
-0.13886 0.077505 0.84324998
-0.13799 0.077505 0.84324998
-0.13710999 0.077505 0.84324998
-0.13631999 0.077551998 0.84376001
-0.13545001 0.077551998 0.84376001
-0.13466001 0.077598996 0.84428
-0.13378 0.077598996 0.84428
-0.13282 0.077551998 0.84376001
-0.13203 0.077598996 0.84428
-0.13123 0.077646002 0.84478998
-0.13036001 0.077646002 0.84478998
-0.12948 0.077646002 0.84478998
-0.12853 0.077598996 0.84428
-0.12773 0.077646002 0.84478998
-0.12684999 0.077646002 0.84478998
-0.1259 0.077598996 0.84428
-0.1251 0.077646002 0.84478998
-0.12422 0.077646002 0.84478998
-0.12335 0.077646002 0.84478998
-0.12255 0.077693 0.84530002
-0.12167 0.077693 0.84530002
-0.12072 0.077646002 0.84478998
-0.11984 0.077646002 0.84478998
-0.11904 0.077693 0.84530002
-0.11809 0.077646002 0.84478998
-0.11722 0.077646002 0.84478998
-0.11634 0.077646002 0.84478998
-0.11553 0.077693 0.84530002
-0.11459 0.077646002 0.84478998
-0.11378 0.077693 0.84530002
-0.11291 0.077693 0.84530002
-0.1121 0.077740997 0.84582001
-0.11115 0.077693 0.84530002
-0.11028 0.077693 0.84530002
-0.10947 0.077740997 0.84582001
-0.10859 0.077740997 0.84582001
-0.10771 0.077740997 0.84582001
-0.1069 0.077788003 0.84632999
-0.10596 0.077740997 0.84582001
-0.10514 0.077788003 0.84632999
-0.10427 0.077788003 0.84632999
-0.10345 0.077835001 0.84684998
-0.10257 0.077835001 0.84684998
-0.1017 0.077835001 0.84684998
-0.10082 0.077835001 0.84684998
-0.10006 0.077930003 0.84788001
-0.099122003 0.077882998 0.84737003
-0.098242998 0.077882998 0.84737003
-0.094671004 0.077835001 0.84684998
-0.093850002 0.077882998 0.84737003
-0.092970997 0.077882998 0.84737003
-0.092036001 0.077835001 0.84684998
-0.091158003 0.077835001 0.84684998
-0.090225004 0.077788003 0.84632999
-0.089293003 0.077740997 0.84582001
-0.088469997 0.077788003 0.84632999
-0.087645002 0.077835001 0.84684998
-0.086714 0.077788003 0.84632999
-0.085836999 0.077788003 0.84632999
-0.085010998 0.077835001 0.84684998
-0.084132999 0.077835001 0.84684998
-0.083204001 0.077788003 0.84632999
-0.082326002 0.077788003 0.84632999
-0.081449002 0.077788003 0.84632999
-0.080619998 0.077835001 0.84684998
-0.079742 0.077835001 0.84684998
-0.078815997 0.077788003 0.84632999
-0.077937998 0.077788003 0.84632999
-0.077013999 0.077740997 0.84582001
-0.076090001 0.077693 0.84530002
-0.075213999 0.077693 0.84530002
-0.074247003 0.077598996 0.84428
-0.073416002 0.077646002 0.84478998
-0.07254 0.077646002 0.84478998
-0.071663998 0.077646002 0.84478998
-0.070788004 0.077646002 0.84478998
-0.069912001 0.077646002 0.84478998
-0.069035999 0.077646002 0.84478998
-0.068118997 0.077598996 0.84428
-0.067202002 0.077551998 0.84376001
-0.066367999 0.077598996 0.84428
-0.065491997 0.077598996 0.84428
-0.064655997 0.077646002 0.84478998
-0.063818999 0.077693 0.84530002
-0.063019 0.077788003 0.84632999
-0.062103 0.077740997 0.84582001
-0.061264001 0.077788003 0.84632999
-0.060385998 0.077788003 0.84632999
-0.059508 0.077788003 0.84632999
-0.058630999 0.077788003 0.84632999
-0.057788 0.077835001 0.84684998
-0.056910001 0.077835001 0.84684998
-0.056031998 0.077835001 0.84684998
-0.055153999 0.077835001 0.84684998
-0.054308999 0.077882998 0.84737003
-0.053397998 0.077835001 0.84684998
-0.052551001 0.077882998 0.84737003
-0.051640999 0.077835001 0.84684998
-0.050794002 0.077882998 0.84737003
-0.049885001 0.077835001 0.84684998
-0.049067002 0.077930003 0.84788001
-0.048186999 0.077930003 0.84788001
-0.047308002 0.077930003 0.84788001
-0.046429001 0.077930003 0.84788001
-0.04555 0.077930003 0.84788001
-0.044643 0.077882998 0.84737003
-0.043765001 0.077882998 0.84737003
-0.042886 0.077882998 0.84737003
-0.042006999 0.077882998 0.84737003
-0.041104 0.077835001 0.84684998
-0.040224999 0.077835001 0.84684998
-0.039347 0.077835001 0.84684998
-0.038493 0.077882998 0.84737003
-0.037613999 0.077882998 0.84737003
-0.036757998 0.077930003 0.84788001
-0.035856999 0.077882998 0.84737003
-0.034999002 0.077930003 0.84788001
-0.034162 0.078025997 0.84891999
-0.033261001 0.077978 0.8484
-0.032441001 0.078120999 0.84996003
-0.031578999 0.078169003 0.85048002
-0.030658999 0.078073002 0.84943998
-0.029778 0.078073002 0.84943998
-0.028898001 0.078073002 0.84943998
-0.028016999 0.078073002 0.84943998
-0.027136 0.078073002 0.84943998
-0.026255 0.078073002 0.84943998
-0.025374001 0.078073002 0.84943998
-0.024478 0.078025997 0.84891999
-0.023598 0.078025997 0.84891999
-0.022704 0.077978 0.8484
-0.021824 0.077978 0.8484
-0.020943999 0.077978 0.8484
-0.020065 0.077978 0.8484
-0.019173 0.077930003 0.84788001
-0.018293999 0.077930003 0.84788001
-0.017415 0.077930003 0.84788001
-0.016546 0.077978 0.8484
-0.015675001 0.078025997 0.84891999
-0.014813 0.078120999 0.84996003
-0.013923 0.078073002 0.84943998
-0.013043 0.078073002 0.84943998
-0.012162 0.078073002 0.84943998
-0.011281 0.078073002 0.84943998
-0.0104 0.078073002 0.84943998
-0.0095191998 0.078073002 0.84943998
-0.0086331004 0.078025997 0.84891999
-0.0077527999 0.078025997 0.84891999
-0.0068683 0.077978 0.8484
-0.0059886002 0.077978 0.8484
-0.0051056999 0.077930003 0.84788001
-0.0042265002 0.077930003 0.84788001
-0.0033452001 0.077882998 0.84737003
-0.0024635 0.077788003 0.84632999
-0.001584 0.077693 0.84530002
-0.00070616999 0.077551998 0.84376001
0.022341 0.067832001 0.73800999
0.023081999 0.067759998 0.73723
0.023821 0.067688003 0.73645002
0.024559001 0.067616999 0.73566997
0.025295001 0.067544997 0.73488998
0.026043 0.067509003 0.73449999
0.026734 0.067332 0.73256999
0.027479 0.067295998 0.73218
0.028209001 0.067225002 0.73141003
0.028952001 0.067189999 0.73102999
0.029679 0.067119002 0.73026001
0.030404 0.067048997 0.72948998
0.031128 0.066978 0.72873002
0.031867001 0.066942997 0.72834003
0.032588001 0.066872999 0.72758001
0.033307001 0.066803001 0.72681999
0.034008 0.066698998 0.72567999
0.034724001 0.066629 0.72491997
0.035475999 0.066629 0.72491997
0.036208 0.066593997 0.72455001
0.036940999 0.06656 0.72417003
0.037671998 0.066524997 0.72378999
0.038401999 0.066490002 0.72341001
0.039112002 0.066421002 0.72266001
0.039861001 0.066421002 0.72266001
0.040589001 0.066386998 0.72228998
0.041317001 0.066352002 0.72191
0.042066 0.066352002 0.72191
0.042769998 0.066283002 0.72115999
0.043494999 0.066248998 0.72079003
0.044197001 0.066179998 0.72004002
0.044943001 0.066179998 0.72004002
0.04569 0.066179998 0.72004002
0.046411999 0.066146001 0.71967
0.047134001 0.066111997 0.71929997
0.047880001 0.066111997 0.71929997
0.048625998 0.066111997 0.71929997
0.049371999 0.066111997 0.71929997
0.050092001 0.066078 0.71891999
0.050836999 0.066078 0.71891999
0.051583 0.066078 0.71891999
0.052328002 0.066078 0.71891999
0.053045999 0.066042997 0.71855003
0.053819001 0.066078 0.71891999
0.054565001 0.066078 0.71891999
0.05531 0.066078 0.71891999
0.056026999 0.066042997 0.71855003
0.056800999 0.066078 0.71891999
0.057546999 0.066078 0.71891999
0.058323 0.066111997 0.71929997
0.059068002 0.066111997 0.71929997
0.059813999 0.066111997 0.71929997
0.060559999 0.066111997 0.71929997
0.061338 0.066146001 0.71967
0.062084001 0.066146001 0.71967
0.062830001 0.066146001 0.71967
0.063610002 0.066179998 0.72004002
0.064423002 0.066248998 0.72079003
0.065204002 0.066283002 0.72115999
0.065952003 0.066283002 0.72115999
0.066734001 0.066317998 0.72153997
0.067518003 0.066352002 0.72191
0.068265997 0.066352002 0.72191
0.069050997 0.066386998 0.72228998
0.069835998 0.066421002 0.72266001
0.070584998 0.066421002 0.72266001
0.071372002 0.066455998 0.72303998
0.072122 0.066455998 0.72303998
0.072908998 0.066490002 0.72341001
0.073659003 0.066490002 0.72341001
0.074447997 0.066524997 0.72378999
0.075237997 0.06656 0.72417003
0.076029003 0.066593997 0.72455001
0.076779999 0.066593997 0.72455001
0.077611998 0.066664003 0.72530001
0.078446001 0.066734001 0.72605997
0.079406999 0.066908002 0.72795999
0.080371998 0.067084 0.72987002
0.081214003 0.067155004 0.73063999
0.081799999 0.067014001 0.72911
0.082296997 0.066803001 0.72681999
0.12121 0.069228999 0.75321001
0.12206 0.069266997 0.75362003
0.12284 0.069266997 0.75362003
0.12362 0.069266997 0.75362003
0.12447 0.069303997 0.75402999
0.12525 0.069303997 0.75402999
0.12604 0.069303997 0.75402999
0.12695999 0.06938 0.75484997
0.12781 0.069417 0.75525999
0.12865999 0.069454998 0.75567001
0.12937 0.069417 0.75525999
0.13022999 0.069454998 0.75567001
0.13115001 0.069531001 0.75648999
0.13194001 0.069531001 0.75648999
0.13271999 0.069531001 0.75648999
0.13372999 0.069643997 0.75773001
0.13459 0.069682002 0.75814003
0.13552 0.069758996 0.75897002
0.13661 0.069911003 0.76063001
0.13739 0.069911003 0.76063001
0.16047999 0.078505002 0.85413998
0.16136999 0.078505002 0.85413998
0.16225 0.078505002 0.85413998
0.16314 0.078505002 0.85413998
0.16393 0.078456998 0.85360998
0.16481 0.078456998 0.85360998
0.1657 0.078456998 0.85360998
0.16658001 0.078456998 0.85360998
0.16746999 0.078456998 0.85360998
0.16835 0.078456998 0.85360998
0.16924 0.078456998 0.85360998
0.17023 0.078505002 0.85413998
0.17111 0.078505002 0.85413998
0.17200001 0.078505002 0.85413998
0.17309999 0.078602001 0.85518998
0.17409 0.078649998 0.85571003
0.17508 0.078699 0.85623997
0.17597 0.078699 0.85623997
0.17686 0.078699 0.85623997
0.17786001 0.078746997 0.85676998
0.17874999 0.078746997 0.85676998
0.17941 0.078649998 0.85571003
0.1803 0.078649998 0.85571003
0.18119 0.078649998 0.85571003
0.18208 0.078649998 0.85571003
0.18285 0.078602001 0.85518998
0.18362001 0.078552999 0.85465997
0.18450999 0.078552999 0.85465997
0.18539999 0.078552999 0.85465997
0.18617 0.078505002 0.85413998
0.18682 0.078409001 0.85308999
0.18759 0.078360997 0.85255998
0.18848 0.078360997 0.85255998
0.18925001 0.078313001 0.85203999
0.19013 0.078313001 0.85203999
0.19113 0.078360997 0.85255998
0.19201 0.078360997 0.85255998
0.19302 0.078409001 0.85308999
0.1939 0.078409001 0.85308999
0.19479001 0.078409001 0.85308999
0.19566999 0.078409001 0.85308999
0.19656 0.078409001 0.85308999
0.19732 0.078360997 0.85255998
0.19832 0.078409001 0.85308999
0.19909 0.078360997 0.85255998
0.20022 0.078456998 0.85360998
0.20110001 0.078456998 0.85360998
0.20198999 0.078456998 0.85360998
0.20299999 0.078505002 0.85413998
0.20388 0.078505002 0.85413998
0.20464 0.078456998 0.85360998
0.20553 0.078456998 0.85360998
0.20641001 0.078456998 0.85360998
0.20730001 0.078456998 0.85360998
0.20806 0.078409001 0.85308999
0.20907 0.078456998 0.85360998
0.20995 0.078456998 0.85360998
0.21071 0.078409001 0.85308999
0.21159001 0.078409001 0.85308999
0.21261001 0.078456998 0.85360998
0.21336 0.078409001 0.85308999
0.21425 0.078409001 0.85308999
0.21526 0.078456998 0.85360998
0.21615 0.078456998 0.85360998
0.21703 0.078456998 0.85360998
0.21819 0.078552999 0.85465997
0.21894 0.078505002 0.85413998
0.21969 0.078456998 0.85360998
0.22070999 0.078505002 0.85413998
0.22172999 0.078552999 0.85465997
0.22248 0.078505002 0.85413998
0.22337 0.078505002 0.85413998
0.22439 0.078552999 0.85465997
0.22528 0.078552999 0.85465997
0.22616 0.078552999 0.85465997
0.22719 0.078602001 0.85518998
0.22822 0.078649998 0.85571003
0.22882 0.078552999 0.85465997
0.22957 0.078505002 0.85413998
0.2306 0.078552999 0.85465997
0.23134001 0.078505002 0.85413998
0.23222999 0.078505002 0.85413998
0.2334 0.078602001 0.85518998
0.23428001 0.078602001 0.85518998
0.23503 0.078552999 0.85465997
0.23605999 0.078602001 0.85518998
0.23709001 0.078649998 0.85571003
0.23797999 0.078649998 0.85571003
0.23886999 0.078649998 0.85571003
0.23975 0.078649998 0.85571003
0.24064 0.078649998 0.85571003
0.24138001 0.078602001 0.85518998
0.24241 0.078649998 0.85571003
0.24330001 0.078649998 0.85571003
0.24404 0.078602001 0.85518998
0.24493 0.078602001 0.85518998
0.24581 0.078602001 0.85518998
0.24654999 0.078552999 0.85465997
0.24743 0.078552999 0.85465997
0.24832 0.078552999 0.85465997
0.24905001 0.078505002 0.85413998
0.24979 0.078456998 0.85360998
0.25066999 0.078456998 0.85360998
0.25156 0.078456998 0.85360998
0.25229001 0.078409001 0.85308999
0.25317001 0.078409001 0.85308999
0.25421 0.078456998 0.85360998
0.25510001 0.078456998 0.85360998
0.25598001 0.078456998 0.85360998
0.25687 0.078456998 0.85360998
0.25775 0.078456998 0.85360998
0.2588 0.078505002 0.85413998
0.25951999 0.078456998 0.85360998
0.26056999 0.078505002 0.85413998
0.26144999 0.078505002 0.85413998
0.26234001 0.078505002 0.85413998
0.26339 0.078552999 0.85465997
0.26460001 0.078649998 0.85571003
0.26549 0.078649998 0.85571003
0.26637 0.078649998 0.85571003
0.26758999 0.078746997 0.85676998
0.26848 0.078746997 0.85676998
0.26936999 0.078746997 0.85676998
0.27026001 0.078746997 0.85676998
0.27114001 0.078746997 0.85676998
-0.15459999 0.078378998 0.84324998
-0.15364 0.078331999 0.84274
-0.15276 0.078331999 0.84274
-0.15188999 0.078331999 0.84274
-0.15101001 0.078331999 0.84274
-0.15005 0.078284003 0.84223002
-0.14918 0.078284003 0.84223002
-0.14839 0.078331999 0.84274
-0.14743 0.078284003 0.84223002
-0.14647 0.078236997 0.84171999
-0.14568 0.078284003 0.84223002
-0.14481001 0.078284003 0.84223002
-0.14385 0.078236997 0.84171999
-0.14297999 0.078236997 0.84171999
-0.14218999 0.078284003 0.84223002
-0.14132001 0.078284003 0.84223002
-0.14036 0.078236997 0.84171999
-0.13957 0.078284003 0.84223002
-0.13869999 0.078284003 0.84223002
-0.13782001 0.078284003 0.84223002
-0.13695 0.078284003 0.84223002
-0.13624001 0.078378998 0.84324998
-0.13528 0.078331999 0.84274
-0.13449 0.078378998 0.84324998
-0.13361999 0.078378998 0.84324998
-0.13274001 0.078378998 0.84324998
-0.13187 0.078378998 0.84324998
-0.13107 0.078427002 0.84376001
-0.13028 0.078474 0.84428
-0.12932 0.078427002 0.84376001
-0.12845001 0.078427002 0.84376001
-0.12764999 0.078474 0.84428
-0.12678 0.078474 0.84428
-0.12582 0.078427002 0.84376001
-0.12502 0.078474 0.84428
-0.12415 0.078474 0.84428
-0.1232 0.078427002 0.84376001
-0.1224 0.078474 0.84428
-0.12152 0.078474 0.84428
-0.12057 0.078427002 0.84376001
-0.1197 0.078427002 0.84376001
-0.1189 0.078474 0.84428
-0.11788 0.078378998 0.84324998
-0.117 0.078378998 0.84324998
-0.1162 0.078427002 0.84376001
-0.11532 0.078427002 0.84376001
-0.11445 0.078427002 0.84376001
-0.11357 0.078427002 0.84376001
-0.1127 0.078427002 0.84376001
-0.11189 0.078474 0.84428
-0.11102 0.078474 0.84428
-0.11014 0.078474 0.84428
-0.10933 0.078521997 0.84478998
-0.10846 0.078521997 0.84478998
-0.10758 0.078521997 0.84478998
-0.10677 0.078570001 0.84530002
-0.10583 0.078521997 0.84478998
-0.10502 0.078570001 0.84530002
-0.1042 0.078617997 0.84582001
-0.10333 0.078617997 0.84582001
-0.10251 0.078666002 0.84632999
-0.10163 0.078666002 0.84632999
-0.10076 0.078666002 0.84632999
-0.099939004 0.078713998 0.84684998
-0.099000998 0.078666002 0.84632999
-0.098122999 0.078666002 0.84632999
-0.097245999 0.078666002 0.84632999
-0.096251003 0.078570001 0.84530002
-0.095431998 0.078617997 0.84582001
-0.094554998 0.078617997 0.84582001
-0.093677998 0.078617997 0.84582001
-0.092858002 0.078666002 0.84632999
-0.091923997 0.078617997 0.84582001
-0.091046996 0.078617997 0.84582001
-0.090115003 0.078570001 0.84530002
-0.089184001 0.078521997 0.84478998
-0.088362001 0.078570001 0.84530002
-0.087539002 0.078617997 0.84582001
-0.086608998 0.078570001 0.84530002
-0.085731998 0.078570001 0.84530002
-0.084907003 0.078617997 0.84582001
-0.084030002 0.078617997 0.84582001
-0.083103001 0.078570001 0.84530002
-0.082226001 0.078570001 0.84530002
-0.081349999 0.078570001 0.84530002
-0.080522001 0.078617997 0.84582001
-0.079645 0.078617997 0.84582001
-0.078720003 0.078570001 0.84530002
-0.077843003 0.078570001 0.84530002
-0.076920003 0.078521997 0.84478998
-0.076044001 0.078521997 0.84478998
-0.075121999 0.078474 0.84428
-0.074202001 0.078427002 0.84376001
-0.073371001 0.078474 0.84428
-0.072495997 0.078474 0.84428
-0.071576998 0.078427002 0.84376001
-0.070702001 0.078427002 0.84376001
-0.069826998 0.078427002 0.84376001
-0.068952002 0.078427002 0.84376001
-0.068076998 0.078427002 0.84376001
-0.067161001 0.078378998 0.84324998
-0.066326998 0.078427002 0.84376001
-0.065452002 0.078427002 0.84376001
-0.064576998 0.078427002 0.84376001
-0.063780002 0.078521997 0.84478998
-0.062941998 0.078570001 0.84530002
-0.062027998 0.078521997 0.84478998
-0.061189 0.078570001 0.84530002
-0.060313001 0.078570001 0.84530002
-0.059436001 0.078570001 0.84530002
-0.058559 0.078570001 0.84530002
-0.057718001 0.078617997 0.84582001
-0.056841001 0.078617997 0.84582001
-0.055964001 0.078617997 0.84582001
-0.055087 0.078617997 0.84582001
-0.05421 0.078617997 0.84582001
-0.053332999 0.078617997 0.84582001
-0.052487001 0.078666002 0.84632999
-0.051578 0.078617997 0.84582001
-0.050732002 0.078666002 0.84632999
-0.049823999 0.078617997 0.84582001
-0.049006999 0.078713998 0.84684998
-0.048129 0.078713998 0.84684998
-0.047222 0.078666002 0.84632999
-0.046372 0.078713998 0.84684998
-0.045467 0.078666002 0.84632999
-0.044589002 0.078666002 0.84632999
-0.043710999 0.078666002 0.84632999
-0.042833999 0.078666002 0.84632999
-0.041931 0.078617997 0.84582001
-0.041053999 0.078617997 0.84582001
-0.040176 0.078617997 0.84582001
-0.039299 0.078617997 0.84582001
-0.038446002 0.078666002 0.84632999
-0.037544999 0.078617997 0.84582001
-0.03669 0.078666002 0.84632999
-0.035790998 0.078617997 0.84582001
-0.034914002 0.078617997 0.84582001
-0.034077998 0.078713998 0.84684998
-0.033179998 0.078666002 0.84632999
-0.032361001 0.078809999 0.84788001
-0.031521 0.078906 0.84891999
-0.030622 0.078858003 0.8484
-0.029742001 0.078858003 0.8484
-0.028862 0.078858003 0.8484
-0.027965 0.078809999 0.84788001
-0.027102999 0.078858003 0.8484
-0.026223 0.078858003 0.8484
-0.025327999 0.078809999 0.84788001
-0.024434 0.078762002 0.84737003
-0.023554999 0.078762002 0.84737003
-0.022662001 0.078713998 0.84684998
-0.021784 0.078713998 0.84684998
-0.020893 0.078666002 0.84632999
-0.020028001 0.078713998 0.84684998
-0.019138001 0.078666002 0.84632999
-0.018261001 0.078666002 0.84632999
-0.017371999 0.078617997 0.84582001
-0.016504999 0.078666002 0.84632999
-0.015636999 0.078713998 0.84684998
-0.014777 0.078809999 0.84788001
-0.013889 0.078762002 0.84737003
-0.013019 0.078809999 0.84788001
-0.012139 0.078809999 0.84788001
-0.01126 0.078809999 0.84788001
-0.010381 0.078809999 0.84788001
-0.0095076002 0.078858003 0.8484
-0.0086172996 0.078762002 0.84737003
-0.0077386 0.078762002 0.84737003
-0.0068557998 0.078713998 0.84684998
-0.0059775999 0.078713998 0.84684998
-0.0050964002 0.078666002 0.84632999
-0.0042188 0.078666002 0.84632999
-0.0033390999 0.078617997 0.84582001
-0.0024605 0.078570001 0.84530002
-0.0015829999 0.078521997 0.84478998
-0.00070574001 0.078378998 0.84324998
0.00016857 0.078331999 0.84274
0.022341 0.068596996 0.73800999
0.023094 0.068561003 0.73762
0.023833999 0.068488002 0.73684001
0.024572 0.068415999 0.73606002
0.025320999 0.068379998 0.73566997
0.026071001 0.068342999 0.73527998
0.02679 0.068235002 0.73411
0.027523 0.068163 0.73334002
0.028253 0.068090998 0.73256999
0.028982 0.068019003 0.73180002
0.02971 0.067947999 0.73102999
0.030436 0.067877002 0.73026001
0.031160001 0.067805 0.72948998
0.0319 0.067769997 0.72911
0.032621998 0.067699 0.72834003
0.033360001 0.067662999 0.72795999
0.034042999 0.067521997 0.72644001
0.034759998 0.067451 0.72567999
0.035494 0.067415997 0.72530001
0.036226999 0.067381002 0.72491997
0.036959998 0.067345999 0.72455001
0.037691001 0.067310996 0.72417003
0.038422 0.067276001 0.72378999
0.039131999 0.067206003 0.72303998
0.039882001 0.067206003 0.72303998
0.040610999 0.067171 0.72266001
0.041338 0.067135997 0.72228998
0.042087 0.067135997 0.72228998
0.042792 0.067065999 0.72153997
0.043517999 0.067031004 0.72115999
0.044241998 0.066996001 0.72079003
0.044966999 0.066962004 0.72040999
0.045713998 0.066962004 0.72040999
0.046436999 0.066927001 0.72004002
0.047159001 0.066891998 0.71967
0.047905002 0.066891998 0.71967
0.048650999 0.066891998 0.71967
0.049398001 0.066891998 0.71967
0.050117999 0.066858001 0.71929997
0.050864 0.066858001 0.71929997
0.05161 0.066858001 0.71929997
0.052354999 0.066858001 0.71929997
0.053073999 0.066822998 0.71891999
0.053847 0.066858001 0.71929997
0.054593001 0.066858001 0.71929997
0.055339001 0.066858001 0.71929997
0.056056 0.066822998 0.71891999
0.056830999 0.066858001 0.71929997
0.057576999 0.066858001 0.71929997
0.058352999 0.066891998 0.71967
0.059099 0.066891998 0.71967
0.059845001 0.066891998 0.71967
0.060591999 0.066891998 0.71967
0.06137 0.066927001 0.72004002
0.062116001 0.066927001 0.72004002
0.062863 0.066927001 0.72004002
0.063642003 0.066962004 0.72040999
0.064489998 0.067065999 0.72153997
0.065237999 0.067065999 0.72153997
0.065986 0.067065999 0.72153997
0.066803999 0.067135997 0.72228998
0.067588001 0.067171 0.72266001
0.068301998 0.067135997 0.72228998
0.069086999 0.067171 0.72266001
0.069871999 0.067206003 0.72303998
0.070621997 0.067206003 0.72303998
0.071409002 0.06724 0.72341001
0.072159 0.06724 0.72341001
0.072947003 0.067276001 0.72378999
0.073697999 0.067276001 0.72378999
0.074487001 0.067310996 0.72417003
0.075277001 0.067345999 0.72455001
0.076067999 0.067381002 0.72491997
0.076820001 0.067381002 0.72491997
0.077652998 0.067451 0.72567999
0.078487001 0.067521997 0.72644001
0.079489999 0.067734003 0.72873002
0.080413997 0.067877002 0.73026001
0.081257001 0.067947999 0.73102999
0.081843004 0.067805 0.72948998
0.082340002 0.067592002 0.72719997
0.083007 0.067521997 0.72644001
0.1157 0.079051003 0.85048002
0.11665 0.079099 0.85100001
0.11746 0.079051003 0.85048002
0.11842 0.079099 0.85100001
0.1193 0.079099 0.85100001
0.12018 0.079099 0.85100001
0.12107 0.079099 0.85100001
0.12115 0.069972001 0.75281
0.12206 0.070047997 0.75362003
0.12284 0.070047997 0.75362003
0.12362 0.070047997 0.75362003
0.12447 0.070086002 0.75402999
0.12525 0.070086002 0.75402999
0.12604 0.070086002 0.75402999
0.12695999 0.070161998 0.75484997
0.12788001 0.070239 0.75567001
0.12873 0.070276998 0.75607997
0.12944999 0.070239 0.75567001
0.1303 0.070276998 0.75607997
0.13123 0.070353001 0.75691003
0.13201 0.070353001 0.75691003
0.1328 0.070353001 0.75691003
0.1338 0.070468999 0.75814003
0.13466001 0.070506997 0.75856
0.13559 0.070583999 0.75939
0.13661 0.070699997 0.76063001
0.13739 0.070699997 0.76063001
0.16029 0.079292998 0.85308999
0.16117001 0.079292998 0.85308999
0.16205999 0.079292998 0.85308999
0.16294 0.079292998 0.85308999
0.16372 0.079245001 0.85255998
0.16451 0.079195999 0.85203999
0.16549 0.079245001 0.85255998
0.16627 0.079195999 0.85203999
0.16716 0.079195999 0.85203999
0.16813999 0.079245001 0.85255998
0.16903 0.079245001 0.85255998
0.16991 0.079245001 0.85255998
0.1708 0.079245001 0.85255998
0.17179 0.079292998 0.85308999
0.17287999 0.079391003 0.85413998
0.17377 0.079391003 0.85413998
0.17476 0.079439998 0.85465997
0.17565 0.079439998 0.85465997
0.17653 0.079439998 0.85465997
0.17753001 0.079489 0.85518998
0.17852999 0.079538003 0.85571003
0.17907999 0.079391003 0.85413998
0.17997 0.079391003 0.85413998
0.18085 0.079391003 0.85413998
0.18174 0.079391003 0.85413998
0.18251 0.079342 0.85360998
0.18329 0.079292998 0.85308999
0.18416999 0.079292998 0.85308999
0.18505999 0.079292998 0.85308999
0.18583 0.079245001 0.85255998
0.1866 0.079195999 0.85203999
0.18736 0.079148002 0.85152
0.18825001 0.079148002 0.85152
0.18912999 0.079148002 0.85152
0.19001 0.079148002 0.85152
0.1909 0.079148002 0.85152
0.1919 0.079195999 0.85203999
0.19278 0.079195999 0.85203999
0.19366001 0.079195999 0.85203999
0.19454999 0.079195999 0.85203999
0.19543 0.079195999 0.85203999
0.19643 0.079245001 0.85255998
0.1972 0.079195999 0.85203999
0.19808 0.079195999 0.85203999
0.19897 0.079195999 0.85203999
0.19997001 0.079245001 0.85255998
0.20085999 0.079245001 0.85255998
0.20174 0.079245001 0.85255998
0.20275 0.079292998 0.85308999
0.20363 0.079292998 0.85308999
0.20427001 0.079195999 0.85203999
0.20528001 0.079245001 0.85255998
0.20615999 0.079245001 0.85255998
0.20692 0.079195999 0.85203999
0.2078 0.079195999 0.85203999
0.20868 0.079195999 0.85203999
0.2097 0.079245001 0.85255998
0.21044999 0.079195999 0.85203999
0.21133 0.079195999 0.85203999
0.21235 0.079245001 0.85255998
0.2131 0.079195999 0.85203999
0.21412 0.079245001 0.85255998
0.215 0.079245001 0.85255998
0.21588001 0.079245001 0.85255998
0.21676999 0.079245001 0.85255998
0.21792001 0.079342 0.85360998
0.21867 0.079292998 0.85308999
0.21956 0.079292998 0.85308999
0.22044 0.079292998 0.85308999
0.22146 0.079342 0.85360998
0.22221 0.079292998 0.85308999
0.22296 0.079245001 0.85255998
0.22412001 0.079342 0.85360998
0.22499999 0.079342 0.85360998
0.22575 0.079292998 0.85308999
0.22677 0.079342 0.85360998
0.22766 0.079342 0.85360998
0.22840001 0.079292998 0.85308999
0.22915 0.079245001 0.85255998
0.23017 0.079292998 0.85308999
0.23091 0.079245001 0.85255998
0.2318 0.079245001 0.85255998
0.23282 0.079292998 0.85308999
0.23385 0.079342 0.85360998
0.23458999 0.079292998 0.85308999
0.23562001 0.079342 0.85360998
0.23665 0.079391003 0.85413998
0.23754001 0.079391003 0.85413998
0.23842999 0.079391003 0.85413998
0.23931 0.079391003 0.85413998
0.2402 0.079391003 0.85413998
0.24108 0.079391003 0.85413998
0.24197 0.079391003 0.85413998
0.24285001 0.079391003 0.85413998
0.24374001 0.079391003 0.85413998
0.24462999 0.079391003 0.85413998
0.24551 0.079391003 0.85413998
0.24625 0.079342 0.85360998
0.24713001 0.079342 0.85360998
0.24801999 0.079342 0.85360998
0.2489 0.079342 0.85360998
0.24947999 0.079245001 0.85255998
0.25036001 0.079245001 0.85255998
0.25139999 0.079292998 0.85308999
0.25213 0.079245001 0.85255998
0.25301999 0.079245001 0.85255998
0.25389999 0.079245001 0.85255998
0.25477999 0.079245001 0.85255998
0.25567001 0.079245001 0.85255998
0.25655001 0.079245001 0.85255998
0.25759 0.079292998 0.85308999
0.25848001 0.079292998 0.85308999
0.25935999 0.079292998 0.85308999
0.26025 0.079292998 0.85308999
0.26129001 0.079342 0.85360998
0.26218 0.079342 0.85360998
0.26306 0.079342 0.85360998
0.26411 0.079391003 0.85413998
0.26499999 0.079391003 0.85413998
0.26605001 0.079439998 0.85465997
0.26693001 0.079439998 0.85465997
0.26782 0.079439998 0.85465997
0.2687 0.079439998 0.85465997
0.26976001 0.079489 0.85518998
0.27063999 0.079489 0.85518998
-0.15354 0.079158001 0.84223002
-0.15267 0.079158001 0.84223002
-0.15180001 0.079158001 0.84223002
-0.15083 0.079109997 0.84171999
-0.14986999 0.079062 0.84121001
-0.149 0.079062 0.84121001
-0.14821 0.079109997 0.84171999
-0.14725 0.079062 0.84121001
-0.14629 0.079014003 0.84069997
-0.14551 0.079062 0.84121001
-0.14463 0.079062 0.84121001
-0.14366999 0.079014003 0.84069997
-0.1428 0.079014003 0.84069997
-0.14202 0.079062 0.84121001
-0.14114 0.079062 0.84121001
-0.14019001 0.079014003 0.84069997
-0.13940001 0.079062 0.84121001
-0.13853 0.079062 0.84121001
-0.13766 0.079062 0.84121001
-0.13677999 0.079062 0.84121001
-0.13608 0.079158001 0.84223002
-0.13512 0.079109997 0.84171999
-0.13433 0.079158001 0.84223002
-0.13354 0.079205997 0.84274
-0.13258 0.079158001 0.84223002
-0.13179 0.079205997 0.84274
-0.13099 0.079254001 0.84324998
-0.13011999 0.079254001 0.84324998
-0.12917 0.079205997 0.84274
-0.12829 0.079205997 0.84274
-0.1275 0.079254001 0.84324998
-0.12661999 0.079254001 0.84324998
-0.12567 0.079205997 0.84274
-0.12487 0.079254001 0.84324998
-0.124 0.079254001 0.84324998
-0.12305 0.079205997 0.84274
-0.12225 0.079254001 0.84324998
-0.12138 0.079254001 0.84324998
-0.12043 0.079205997 0.84274
-0.11948 0.079158001 0.84223002
-0.11868 0.079205997 0.84274
-0.11773 0.079158001 0.84223002
-0.11679 0.079109997 0.84171999
-0.11599 0.079158001 0.84223002
-0.11518 0.079205997 0.84274
-0.11424 0.079158001 0.84223002
-0.11337 0.079158001 0.84223002
-0.11256 0.079205997 0.84274
-0.11176 0.079254001 0.84324998
-0.11088 0.079254001 0.84324998
-0.11001 0.079254001 0.84324998
-0.1092 0.079301998 0.84376001
-0.10832 0.079301998 0.84376001
-0.10745 0.079301998 0.84376001
-0.10664 0.079350002 0.84428
-0.1057 0.079301998 0.84376001
-0.10489 0.079350002 0.84428
-0.10408 0.079397999 0.84478998
-0.1032 0.079397999 0.84478998
-0.10239 0.079446003 0.84530002
-0.10151 0.079446003 0.84530002
-0.10063 0.079446003 0.84530002
-0.099817999 0.079494998 0.84582001
-0.09888 0.079446003 0.84530002
-0.098003998 0.079446003 0.84530002
-0.097126998 0.079446003 0.84530002
-0.096192002 0.079397999 0.84478998
-0.095257998 0.079350002 0.84428
-0.094439998 0.079397999 0.84478998
-0.093564004 0.079397999 0.84478998
-0.092744999 0.079446003 0.84530002
-0.091812 0.079397999 0.84478998
-0.090935998 0.079397999 0.84478998
-0.090060003 0.079397999 0.84478998
-0.089075997 0.079301998 0.84376001
-0.088255003 0.079350002 0.84428
-0.087431997 0.079397999 0.84478998
-0.086503997 0.079350002 0.84428
-0.085628003 0.079350002 0.84428
-0.084803998 0.079397999 0.84478998
-0.083927996 0.079397999 0.84478998
-0.083002001 0.079350002 0.84428
-0.082176 0.079397999 0.84478998
-0.081251003 0.079350002 0.84428
-0.080424003 0.079397999 0.84478998
-0.079548001 0.079397999 0.84478998
-0.078624003 0.079350002 0.84428
-0.077748999 0.079350002 0.84428
-0.076826997 0.079301998 0.84376001
-0.075952001 0.079301998 0.84376001
-0.075076997 0.079301998 0.84376001
-0.074111998 0.079205997 0.84274
-0.073282003 0.079254001 0.84324998
-0.072407998 0.079254001 0.84324998
-0.071489997 0.079205997 0.84274
-0.070658997 0.079254001 0.84324998
-0.069784999 0.079254001 0.84324998
-0.068910003 0.079254001 0.84324998
-0.068035997 0.079254001 0.84324998
-0.067120999 0.079205997 0.84274
-0.066287003 0.079254001 0.84324998
-0.065412998 0.079254001 0.84324998
-0.064538002 0.079254001 0.84324998
-0.063702002 0.079301998 0.84376001
-0.062866002 0.079350002 0.84428
-0.06199 0.079350002 0.84428
-0.061115 0.079350002 0.84428
-0.060238998 0.079350002 0.84428
-0.059363998 0.079350002 0.84428
-0.058488 0.079350002 0.84428
-0.057647999 0.079397999 0.84478998
-0.056772001 0.079397999 0.84478998
-0.055895999 0.079397999 0.84478998
-0.055020001 0.079397999 0.84478998
-0.054143999 0.079397999 0.84478998
-0.053268 0.079397999 0.84478998
-0.052391998 0.079397999 0.84478998
-0.051516 0.079397999 0.84478998
-0.050671 0.079446003 0.84530002
-0.049764 0.079397999 0.84478998
-0.048916999 0.079446003 0.84530002
-0.048069999 0.079494998 0.84582001
-0.047164001 0.079446003 0.84530002
-0.046316002 0.079494998 0.84582001
-0.045410998 0.079446003 0.84530002
-0.044535 0.079446003 0.84530002
-0.043657999 0.079446003 0.84530002
-0.042755999 0.079397999 0.84478998
-0.04188 0.079397999 0.84478998
-0.041003998 0.079397999 0.84478998
-0.040128 0.079397999 0.84478998
-0.039252002 0.079397999 0.84478998
-0.038376 0.079397999 0.84478998
-0.037477002 0.079350002 0.84428
-0.036623999 0.079397999 0.84478998
-0.035726 0.079350002 0.84428
-0.034850001 0.079350002 0.84428
-0.034015998 0.079446003 0.84530002
-0.033098999 0.079350002 0.84428
-0.032283001 0.079494998 0.84582001
-0.031463001 0.079640001 0.84737003
-0.030565999 0.079591997 0.84684998
-0.02967 0.079543002 0.84632999
-0.028809 0.079591997 0.84684998
-0.027897 0.079494998 0.84582001
-0.027053 0.079591997 0.84684998
-0.026159 0.079543002 0.84632999
-0.025265999 0.079494998 0.84582001
-0.024389001 0.079494998 0.84582001
-0.023512 0.079494998 0.84582001
-0.022621 0.079446003 0.84530002
-0.021745 0.079446003 0.84530002
-0.020855 0.079397999 0.84478998
-0.019990999 0.079446003 0.84530002
-0.019103 0.079397999 0.84478998
-0.018227 0.079397999 0.84478998
-0.017351 0.079397999 0.84478998
-0.016474999 0.079397999 0.84478998
-0.015599 0.079397999 0.84478998
-0.014741 0.079494998 0.84582001
-0.013864 0.079494998 0.84582001
-0.012995 0.079543002 0.84632999
-0.012117 0.079543002 0.84632999
-0.01124 0.079543002 0.84632999
-0.010368 0.079591997 0.84684998
-0.0094902003 0.079591997 0.84684998
-0.0086016003 0.079494998 0.84582001
-0.0077244998 0.079494998 0.84582001
-0.0068474002 0.079494998 0.84582001
-0.0059667001 0.079446003 0.84530002
-0.0050901999 0.079446003 0.84530002
-0.0042136 0.079446003 0.84530002
-0.0033370999 0.079446003 0.84530002
-0.0024576001 0.079350002 0.84428
-0.0015821001 0.079350002 0.84428
-0.00070531003 0.079205997 0.84274
0.00016847 0.079158001 0.84223002
0.0010418 0.079158001 0.84223002
0.022352999 0.069399998 0.73841
0.023105999 0.069362998 0.73800999
0.023846 0.069288999 0.73723
0.024584999 0.069215998 0.73645002
0.025335001 0.069178998 0.73606002
0.026084 0.069141999 0.73566997
0.026805 0.069032997 0.73449999
0.027551999 0.068995997 0.73411
0.028283 0.068922997 0.73334002
0.029013 0.068851002 0.73256999
0.029741 0.068778001 0.73180002
0.030452 0.068669997 0.73063999
0.031192999 0.068634003 0.73026001
0.031916998 0.068562001 0.72948998
0.032655999 0.068526 0.72911
0.033395 0.068489999 0.72873002
0.034079 0.068346001 0.72719997
0.034797002 0.068274997 0.72644001
0.035530999 0.068239003 0.72605997
0.036246002 0.068167999 0.72530001
0.036979001 0.068132997 0.72491997
0.037710998 0.068097003 0.72455001
0.038442001 0.068062 0.72417003
0.039152998 0.067991003 0.72341001
0.039903 0.067991003 0.72341001
0.040631998 0.067955002 0.72303998
0.041359998 0.067919999 0.72266001
0.042109001 0.067919999 0.72266001
0.042835999 0.067884997 0.72228998
0.043563001 0.067849003 0.72191
0.044287998 0.067814 0.72153997
0.045012999 0.067778997 0.72115999
0.045761 0.067778997 0.72115999
0.046461001 0.067708999 0.72040999
0.047183 0.067674004 0.72004002
0.047929998 0.067674004 0.72004002
0.048675999 0.067674004 0.72004002
0.049423002 0.067674004 0.72004002
0.050144002 0.067639001 0.71967
0.050889999 0.067639001 0.71967
0.051663 0.067674004 0.72004002
0.052382998 0.067639001 0.71967
0.053100999 0.067603998 0.71929997
0.053874999 0.067639001 0.71967
0.054621 0.067639001 0.71967
0.055367999 0.067639001 0.71967
